# 3D point list with one line of data per point:
#   POINT3D_ID, X, Y, Z, R, G, B, ERROR, TRACK[] as (IMAGE_ID, POINT2D_IDX)
# Number of points: 388, mean track length: 3.8498043052837572
4035 0.10155703221792829 -0.42805951514985857 2.125666132065454 112 156 185 0.26740758315344493 22 147 44 149
4036 -0.18363585047123773 -0.58426623005531841 2.1743026044777034 118 148 177 0.90968625645045953 22 233 44 156 29 310 26 234 10 423 30 305 33 229
4037 -0.11462574735135572 -0.69444110066679499 2.129935246214107 27 54 58 1.3050009815294006 22 145 44 159 29 311 26 173 41 180 30 151
4191 -0.10596705053410142 -0.2114724826977184 1.9091493481962174 177 208 192 2.884995714370266 44 1056 10 954
5420 -0.080173426042009832 3.2946698185259717 2.1017696578896929 153 148 142 1.7968256824584774 63 2130 65 2800 61 2349
4050 -0.31119053401266539 -0.52863909301868073 2.1483561992555327 117 141 171 2.0827338015569326 22 1581 44 214 46 213
5424 0.26883304946050474 0.62154570795437925 1.4888308704767392 64 119 124 0.67431413413761032 63 5468 65 2810 61 2426
4053 0.038220540286285361 -0.4337905368489044 2.1751875182452514 115 156 181 1.6021569398267423 22 149 44 225 60 684 26 342 29 220 10 299
5419 0.095116064390841873 2.9235079769344612 2.0387940407797145 200 201 193 1.7104136352065027 63 5770 65 2794 61 2350
4062 -0.045736478134880326 0.28815711497927599 1.6794984272552531 189 210 193 1.1057392154066947 22 259 44 252 26 451
4067 0.26922149525771483 0.51926809889681624 1.5103650490196054 32 68 70 0.86130266007079692 22 246 44 273 26 271 29 559 10 361 30 470
4069 -0.47652273305323239 -0.90277969008943482 2.0362919681844716 21 52 41 0.93869735856006997 22 399 26 506 10 725 60 1749
4072 0.11251154076480327 0.61334615293333705 1.4262068834613271 47 100 94 1.9022189196042523 22 377 44 293 65 2016 61 1545 63 2056 26 537 29 643 10 650
4073 -0.25325680945346829 -0.60074823387770493 2.1302728253509451 116 144 173 1.1946974340599443 22 731 29 1620 26 1866 10 1410 28 1787 38 347
4074 0.10426828505443617 0.64852778870648775 1.3550476774593756 104 155 138 0.90813906892701013 20 372 44 300 29 456
4077 0.011520374685402521 -0.33405832131591084 1.8925204081726621 98 147 151 2.249886465995627 20 852 44 331 13 982 30 924
4078 0.1091720665221764 -0.24490334082281712 1.8406948343989873 70 109 114 0.76974800542872246 22 472 44 342 60 717 26 424
12864 0.39248044357181688 0.82415461975616888 1.2478543361726184 0 0 0 0.54063700230558953 20 208 48 134
4730 0.076154249333563004 0.61701876645413123 1.5807547082555966 147 182 160 0.70295320363142322 42 1564 63 3231
4085 0.1731527269715617 0.35484314481384083 1.5226949896286539 41 92 95 1.1275936356710221 22 164 44 376 63 6279 26 468
4093 0.047256279485119443 -0.5034659201656736 2.1601979140507002 24 42 61 1.2040026605220315 60 2277 29 1675 26 1360 10 1709 22 1422 44 436 13 766
4096 -0.048524043866974252 -0.29952202431953534 1.8674953933187253 55 89 89 0.93957636814596868 22 459 44 453 60 1068 63 1807 65 1800 29 893 26 1168 10 548 12 792
11699 0.020053866888213968 -0.012802587923501189 1.6754271124462232 200 243 241 1.4322852907857937 29 1846 26 817 10 1086 45 738 49 3573 41 1135 39 1195 34 869 38 2027
4097 -0.15416157385786922 -0.2118236218715063 1.9186318333353356 190 220 202 0.58411233172636468 22 949 44 457 26 1442 29 2378 10 1518
5040 0.32060667638849627 0.60153918076751389 1.3526414246669884 171 217 207 2.3727763709620024 63 16 65 15 61 19
4098 -0.043558776936486632 -0.22752556854513867 1.7929345683223292 47 97 98 2.3408285023950577 22 854 44 465 61 1210
4099 0.09527861168526372 -0.12560907634032539 1.7238634655983935 69 120 131 1.6157587086413976 44 485 60 733 63 3035 65 6682 61 2225
6066 0.026733222980761185 3.1499154967521528 1.9350390469000416 0 0 0 0.3845890034727274 63 5891 65 7771
4101 0.047550490490770307 0.18793369445623531 1.6219657188712659 61 102 98 0.84660038888828737 22 507 44 504 29 779 60 4739 26 637 10 596
5044 2.5742641787336744 3.4282019934580581 2.7943174954559304 149 132 104 0.52758249238631261 63 24 65 30
5553 0.39090003132194984 0.74371634217943272 1.2609433980877249 130 120 110 1.8393855145065137 63 5755 65 3710 61 6924
4103 0.068415660863306124 0.46530574668269303 1.6155682825198854 174 196 175 1.725598039491566 22 355 60 522 29 762 26 474 10 482 20 2117 30 2017 29 2387
4104 0.029138361505100033 0.57160290957779203 1.7063619956648857 146 184 169 1.1364994916466959 44 534 43 533 51 1588 58 4013
4105 0.34383497915597466 0.45215135326260364 1.5231656074736841 20 54 63 1.6020982179329857 22 565 44 537
5048 0.15905761514259123 4.1751233013097249 3.0343040109647168 81 63 54 1.0482643888290397 63 53 65 53 61 45
4106 0.064199291527500452 0.65423852042904818 1.5774574531344605 156 191 181 0.86849822042498115 22 554 44 545 29 1080 26 936 10 840
4107 0.25931308514297285 0.56043785631682341 1.4989922215686067 43 93 87 0.96525623245257497 22 245 44 547 26 483 29 561 10 494
6074 0.45366171539525424 3.1050834095494584 1.7536976322430238 154 160 164 0.19678936081250126 65 7874 61 6692
4108 0.21412776735730596 0.55793010675286725 1.4286460647561261 51 89 95 0.99228600071259909 33 1656 44 551 26 530 30 2095
5567 0.53713820905039533 0.96407652637684538 1.1284892615476452 200 195 192 0.3233426171413103 63 5944 61 3314
4109 0.0024190139097851988 0.66723128767986983 1.4603089192114327 125 164 146 0.80279870062276582 22 542 44 559 26 954
5052 0.26286195783670063 3.1721420886489882 2.2112968777560953 168 163 151 0.67335988573381378 63 240 65 84 61 60
4113 -0.39853675597669724 -1.0372705245086353 2.22567040981304 102 136 174 1.7525926339785811 22 1338 44 579 26 1273 2 952
6018 -0.20398854461687535 -0.40888849691367996 2.0029245363152386 125 181 180 1.9932954288966598 65 4635 61 5526 67 3424 66 3515
4996 -0.17475622442351504 -0.41490515629745989 2.0026385396701798 47 87 88 1.5621970750464147 44 1012 60 1544 63 5197 65 4563 61 2042
5505 0.089907507833898351 0.92921673246875836 1.8160019970315713 140 178 166 1.5622367711782703 63 4156 65 3418 61 7313
4120 -0.16695161443514822 -0.13720933442070049 1.8364407088676198 174 197 184 1.2703993220716023 22 474 44 618 29 920
4123 0.0037714347409571426 -0.16693180717547754 1.7837053290483449 149 187 176 1.1269038685996045 22 983 44 628 60 1440
6026 -0.030112830786537894 -0.39200733626221951 1.9518640954055946 100 149 153 0.34487903070189024 60 6208 61 5609
4124 0.067282520249366304 -0.11967611118426945 1.7268788893193106 85 150 139 0.51287210476569378 44 640 30 1965
5519 0.30535596414067001 3.3022748356023253 2.2828556606617232 148 148 138 1.1751912087591314 63 5693 65 3486 61 4389
4126 0.037526385519486019 0.0076970131233890628 1.668763175522022 119 166 160 1.1206472652282593 33 491 44 643 42 1202
5513 0.18277693751550794 0.22648975597346344 1.5599408865515505 124 162 165 1.9043786617257983 60 1220 65 3456 61 4468
4130 -0.016121152792847569 0.44517012262534766 1.7157165837162243 133 161 140 1.4426981830822252 22 2197 44 679 26 1621 13 2764 11 729
4131 0.24027685773196333 0.40496715629412311 1.5414013062348357 16 58 54 0.85805471162539204 20 1029 44 689 29 1949 13 1362
5970 0.069032815427833641 -0.43014032423547516 2.0791345628364093 89 136 152 1.4646483212310706 65 6030 61 3978 66 1941
5463 0.18687240629518284 1.4781221449552435 1.0396583941054034 183 179 167 0.81799774515708279 63 3579 61 3283
4133 0.048582141864775948 0.55650394752772492 1.6757606493756274 127 168 144 1.4835420310774428 22 749 44 693 42 367 43 567
5457 0.12050253987727245 1.4216799257578523 1.0820847415430292 200 189 183 0.037523475662541314 63 2221 61 2590
5824 0.28966053126892644 0.77216057797913651 1.2885930885458463 179 176 161 1.1856318026513069 63 634 61 342
4135 0.32486088805231111 0.44598012225361505 1.5070434627624101 44 83 90 1.4203616160204702 22 365 44 698 29 771 65 2777 26 627 10 632
6858 0.0038851639491899906 -0.3666404907217985 1.9191457007279269 59 96 122 0.79957431655870448 66 4371 67 5795 69 5510 70 4236
4137 0.36123741098143247 0.46843792766727732 1.4871703747024818 64 102 111 1.3557762852675874 22 738 44 704 26 916 29 1067
4139 0.3806208230926354 0.49633674297529179 1.48224213013638 25 58 67 0.74265066796561463 22 555 44 710
5978 0.81153605413250418 4.0297558091528591 3.0496817383927342 131 131 129 0.43270289064847101 63 3268 61 4171
4140 0.21587169567724201 0.54808138988947364 1.469167982696463 45 94 98 1.4642490719575751 22 1189 60 1826 29 2978 26 1693 44 713
5471 0.28333742838255593 -0.25537698164239109 1.8903025820687032 102 159 162 1.6684175683392786 60 4553 61 5789
4142 0.037564618621168659 0.67146540853966807 1.5010965736711466 11 59 47 0.61119406686681199 22 1224 44 723 29 3043 26 1726
5465 0.26517889937477834 -0.32673251303117323 1.948048859879514 139 206 209 0.042642880817070274 60 2405 65 3106
5832 -0.045686684127192172 -0.40866704579562652 2.0284267511858851 65 122 133 0.89715352257320369 65 881 61 480 67 186 66 193 69 153
4147 0.016482800166763695 0.1288487578097833 1.6520267000259037 195 219 203 1.3772003359769129 44 786 30 699 29 784
6050 0.19799239683589379 1.6000036255401662 0.93496612796354761 50 50 40 0.07318678042396673 63 4288 61 6184
4148 0.24017790261342514 0.20378170681465321 1.5617686077630051 68 113 113 1.5341274729690413 20 1086 44 787
4149 0.23075870176449789 0.40749112113702834 1.5316585210162867 35 86 81 0.78585166648946014 22 756 44 788 29 1950 26 1402 13 1364 48 1034
5028 0.26014711066461776 0.43231391973295796 1.5135815523787333 95 136 132 1.5173581127684008 44 201 29 766 26 476 22 1160 10 485 13 482 20 5011
5847 1.8951284384520484 2.9573942966218079 2.2795873933765458 173 168 162 1.291456192660299 63 1645 65 7362 61 1008
5537 0.38916738498586118 0.62054303350095275 1.4816032582846499 44 97 101 0.76406100709702407 63 3307 65 3589 61 2430
5840 0.48569948561195381 3.2328765217187185 2.1420669030665351 137 137 132 1.7779275556533793 65 547 61 788
6874 0.055010927294823181 -0.15656603851554807 1.7359782287261591 110 171 192 0.73419417831642841 66 665 67 712 69 818
4153 -0.44129880425745643 -0.86714666130494344 2.0449445791489849 76 87 81 1.6602080765760163 22 1358 44 804 26 1293 10 1048
4154 -0.053314176201028851 -0.66480452460896633 2.1208910816670716 11 10 15 0.76394405125375697 22 412 44 811 26 1074 10 736
4156 -0.094970152036617531 -0.60900465293325357 1.9379974376884428 16 31 34 0.040286141121044554 22 230 44 825
5551 0.44424855243014172 0.72025998592281482 1.262720427749485 142 134 131 1.4313861016773508 63 5739 65 3706 61 6914
4157 -0.27671654537764151 -0.43488513653868599 2.1039273757246781 179 206 187 0.99214240960560451 22 633 44 832 29 1668 26 746 10 1012
5855 -0.015257057205692722 -0.40315263411072577 2.0184158140828874 119 171 184 0.14203786142110822 63 2888 61 1147
4158 -0.2931862417647309 -0.3847940523794538 2.0686226446364069 34 87 71 1.6110753561772926 22 439 44 839 29 1321 20 2599 26 1124 10 1448 13 2010 46 1221
5545 -0.0076664378484842957 0.74997983921534328 1.3527952451223135 153 157 143 2.0165799544592322 63 5621 65 3671 61 6831
5848 1.7841311228055305 3.0282395074990629 2.1143733671170524 167 172 166 0.95538553827790373 65 2019 61 1013
4160 0.056394897902894404 -0.42099919695550408 2.1015569175766853 54 89 98 1.0667547472001482 22 296 44 851 29 857 26 757 10 441 60 689
11763 0.019885167593588916 -0.40452542552916393 2.0357291318192368 0 61 71 1.8062673734429939 22 1466 29 1337 44 962 26 1145 60 4148 48 1512 10 1773 9 1351
4161 0.072209844687168359 -0.41476802719691569 2.0927494397648956 56 95 102 0.71148833001862799 22 450 44 854 26 1144 29 854 10 445 60 512
5104 0.1422746762067289 0.80542728392296203 1.3070349426275707 180 177 158 1.5402528251970118 63 476 65 363 61 341
4162 -0.17281743877155192 -0.25338400646891351 2.0017585042728649 152 185 163 2.8979189556366034 44 866 42 839 29 2337 26 1425
4164 -0.11784693311963097 -0.23745995081760793 1.844176391758805 121 160 137 1.4134743176889808 22 1277 44 881 29 1753 26 1178 10 953 45 1698
5623 -0.18895647166431903 -0.16325048819966376 2.0675232868564319 246 250 251 1.8418348239995967 63 1514 65 4665
5617 -0.051399456890297096 -0.41944079520410466 2.0182100797811198 39 94 101 1.1684944142408811 60 2320 65 4626 61 2033 66 1230 10 1760 29 2253
4167 -0.42210156468237914 -0.91766049600946475 2.0906088101475162 11 34 44 1.6210111574218928 33 235 44 898 29 465 10 134
4168 0.043806736919810373 -0.42034068030393718 2.1159478964952312 22 52 63 1.0616144978750746 22 615 44 911 26 1985 10 1756
11717 0.085366231152923924 0.32146188193757236 1.5450595767226138 182 231 227 0.91080058665509234 20 937 26 877 30 1971 33 1530
5631 -0.060201967788051473 -0.36480862209494425 1.935367870643055 96 147 151 1.3263403353263989 60 2359 65 4703 67 1577 66 1738 10 1811
5116 0.48743891683204338 3.3142203597560509 2.4367166898489381 64 57 59 1.0417654308198498 63 540 65 558 61 514
5625 -0.031883065037428014 -0.38956834656379602 1.9836477660334344 154 208 208 1.0842654857035223 65 4667 66 1251 67 1110 69 984 26 2008 61 2067 10 1789 33 1217
12286 0.20124545742469321 0.30892868611092128 1.5987903509050441 167 209 190 1.2367434874604908 33 160 46 54
4177 0.5289455208105367 0.06477759701915943 3.8608991770000487 95 152 131 0.14008575415685859 22 1794 44 970
5056 0.43855358481348772 1.1795168020439144 1.1220064334724007 46 39 47 0.042690714225187346 63 153 61 108
5414 1.6233798089140308 2.9508320910747763 2.1359479806562889 193 194 189 0.80380069211364091 63 3406 65 2759 61 1688
4178 0.049541340151277882 -0.4368404089069739 2.168719093513563 16 42 57 1.8390143469000417 22 621 44 977 26 1973
5923 -0.14375888377819238 -0.45940842227111617 2.1100920594676764 66 134 134 2.233818918618125 65 1875 61 2985 66 740 67 493
6082 1.3006280287299559 2.4042394759547419 1.3906511184736274 64 77 94 0.41983555245939563 65 6283 61 6906
4180 -0.27967602185643214 -0.40628567118572817 2.0391419413209113 189 201 179 0.94357793880005947 22 1429 44 1000 26 1366 10 1005
5575 0.2958723988678737 1.2690451924856365 1.0858682396684793 81 73 63 0.018639417099425553 63 6053 61 3350
4181 -0.30855823779068386 -0.36985626134044525 2.0824124592815112 115 150 176 0.85660719579746603 22 1656 44 1006 46 1634
4182 -0.28217274237726969 -0.39815251735593699 2.0186535735647335 195 210 192 1.067975922372935 44 1013 26 1956 22 1652 60 4075 10 1730
5569 0.50525716950443023 0.98791902119471409 1.1253041288948247 58 53 49 0.28684209466753774 63 5952 61 4640
4183 0.45557569257469444 0.62423452600126095 1.3066593594920326 45 39 54 0.32640422958401655 22 1298 44 1015
5412 0.085371256195115319 0.79547957250240142 1.6177861441796708 208 250 236 0.95857891614250013 63 4611 65 2752 61 2378
4905 1.688893072222144 0.93334572696530338 3.735562733373968 145 125 114 1.1657713693468021 60 785 63 1602
4184 -0.15723461362787472 -0.32641850991750965 1.9852597816515594 74 138 124 0.82643642102275783 44 1022 42 1406 26 1410
5064 0.24912831984662628 1.1687749389306801 1.1601276790507256 156 147 142 0.16416988984471625 63 232 61 151
5422 0.062406990593701549 0.72838661564660201 1.5274876956509746 108 163 150 0.61205121257935646 63 3296 65 2804 61 2421
6090 0.10114784959470033 -0.38856550558292541 2.0359547473940935 40 97 113 0.97643368020323307 65 4628 61 7210 66 5605 67 5664 69 3871 70 1615
4909 -0.068179680620736816 -0.65652178080170653 2.1143643199760143 3 21 25 0.85889004240208278 60 993 63 1699 65 1903 61 1098 67 484
4188 -0.40696905456027604 -0.99087987982888837 2.1580102335788767 16 24 33 2.0161384325140763 44 1043 29 1584 33 1066
5583 0.56996615283380514 1.3093860095695595 0.99955440668567352 152 147 144 0.29910658025333281 63 3575 61 6095
5068 0.15353093497211437 0.076195943552602119 1.5789638089314606 104 147 153 0.91548722775046854 63 262 61 163 65 172
4190 -0.028418178816396508 -0.26510370842557002 1.8423931519291292 57 111 113 0.70327148818154495 22 869 44 1051 60 1874 26 1441 10 1805
5577 0.58547662840012782 1.1540356106621819 1.0470248689929533 179 171 160 0.21397321364141106 63 3534 61 3361
4192 0.12477366858636177 -0.28088678918265519 1.8709949224154687 121 166 161 1.5602633000628543 22 1829 44 1060 60 4376
5008 -0.042975036469149706 -0.35994828631796316 1.9295499740209388 107 143 145 1.7024111405554685 60 4216 63 5309 10 1321
4194 0.17281854489518778 -0.19289209696142787 1.7934493621156002 38 76 82 0.84271192732862121 22 1522 65 6598
4195 -0.13981857398946979 0.012322424000596442 1.9311088608948388 33 93 74 0.26255495098288134 22 1018 44 1102 26 1513
6034 -0.044099946872282303 -0.38573360346947921 1.8863283106005113 88 145 156 0.088807158211364007 65 3123 61 5713
5527 1.7453185822733375 2.9168714940763292 2.1375137821580541 199 192 187 0.97784363656736151 63 5740 65 3522 61 6374
4203 0.14737470269804195 0.10633475656904418 1.5913436973879171 57 95 92 0.13269050537699492 44 1133 46 761
6042 0.11195346009885451 2.3088544209684785 2.4820559458183751 153 154 158 2.0023047002287049 65 7571 67 2194
4205 0.36976509343462377 0.23312464781933767 1.7077020720646312 135 149 168 1.0649920343908501 22 1100 44 1152 26 1599
5020 0.13369753020270064 0.43963271466724541 1.5130956763115495 89 124 118 0.7255670389684783 60 5329 63 6094
4206 0.26222990284710634 0.28524727513114373 1.5523639629451502 27 74 80 1.1128548545554611 22 1117 44 1167 29 2736 26 1618 20 1055 10 886 13 2723 30 1970
5529 1.6990034792402986 2.9249730323622556 2.1222722506011054 188 185 179 0.89509469721149026 63 5759 65 3528 61 2317
4207 0.34226693508081157 0.31119133712768421 1.6296460534560773 47 94 105 0.080953499412640198 22 191 26 295
4209 0.10472673863803575 0.4587645997523993 1.5115821342941242 93 135 125 1.275901567553213 22 1156 33 550 44 1184 61 6598 10 1191 46 486 30 758 6 1118
5088 0.2582524947998312 0.61357242173383741 1.5143222197331354 110 164 166 0.59327068812661887 63 293 65 291 61 190
4211 0.070204542559612046 0.51092024684737081 1.554837021973305 142 171 153 1.0363300269743949 22 1882 44 1186 42 1007 29 2905 26 1659 10 2138 30 2280 21 1581
4212 0.23109355051749536 0.46500998060544252 1.5356274799461143 10 51 50 1.4670111650123663 22 1164 44 1187 29 1964 13 881 48 1008 46 2194 41 849
5092 0.34153461584410172 -0.22839493487390167 1.8629982117268382 156 201 198 1.3593113673592987 63 383 65 312
4214 0.086310108313443532 0.51300737845780986 1.4809285151583074 153 196 186 1.3021015906177362 22 1910 44 1196 29 2929 26 1665 41 2378 48 4040
8166 1.4935494520345449 0.3778005433260252 1.1940866115300692 194 179 141 1.4859823168074073 51 3774 58 2521 77 4849 51 3758
4218 0.2794528478899112 0.57496282776153074 1.5595315079437664 37 83 80 1.5467564252167814 22 1947 44 1214 26 2555 29 1557 10 1214
4219 0.055208638852536608 0.77582737607291707 1.7987737641205865 133 165 150 1.3383815051837031 22 1963 44 1218 26 2575
6122 1.9569796416951293 2.5305493952383289 1.4170628715450613 78 90 106 1.6957824596943012 63 3554 61 3202
5615 0.11031211950703894 -0.37389188634044473 2.0621745260495841 57 108 122 1.6685206422376728 63 2883 65 4608 61 7205
5100 0.10930314059654368 0.46965864610990965 1.5077919402408002 84 129 126 0.73894719301095202 63 495 65 351 61 329
4222 -0.022531021971864035 0.68652317015033282 1.3805272767633865 80 123 115 1.5066248706217837 20 2209 44 1256 29 3057 48 1954 26 2660 22 2069 46 1487
5609 -0.007958941200693348 -0.50439416723795072 2.0913312754605435 66 100 110 0.98053760166420434 63 5095 65 4531 61 3942
4881 1.5505671616935564 0.98337571020782633 3.6899275913110841 152 144 136 0.21896613472333387 60 277 63 791
4224 0.25161881198929792 0.61176144628645579 1.3024612672273801 57 54 47 0.90308710894795763 20 643 13 659 45 439 46 327 30 2145 26 1754 41 391
4225 0.20446196454187113 0.64715057667481501 1.2993452410975499 58 45 33 1.7873538089463377 20 1567 44 1271 26 1757 13 3590
5398 0.37017244592839704 4.2131188933785646 2.971446740939657 40 25 18 0.81437329185537688 63 3313 65 2646 61 1973
4226 0.054449307623521022 -0.069782975656460536 1.6972717309343057 139 182 177 0.61966113821352065 60 1383 33 413 26 812 24 572 5 713
5907 1.9504270691072425 2.9049502381870047 2.0558872657592393 168 167 162 0.71967791050386198 65 3554 61 2336
4885 1.511521373696382 0.96059680845285833 3.7428691794603286 57 38 22 0.47593332740574973 60 311 63 894
11530 0.17992931978918561 0.52902418508332549 1.2910828113714996 172 229 214 0.67909500934427647 22 221 26 123
4230 0.3296573201878869 -0.23144045314410436 1.9024565550188659 79 123 125 1.9255123096500448 22 1782 44 1322 29 924
4231 0.49030525014292597 0.29506563492854776 3.7888889071897389 200 220 208 1.6128346290338578 22 1985 44 1324
5396 2.4385499736412539 3.6478698636799325 2.8864243981606439 111 103 83 1.0115043136092756 63 3295 65 2641 61 2162
4889 0.24696294262804591 0.21472911376247944 1.5618788691705336 127 166 163 1.8809096773947265 60 726 63 996 61 1280 65 776
4232 -0.096839281347170153 -0.11231074219666602 1.7777676381218579 133 166 147 0.84351600892174128 22 2502 44 1329 42 1710 29 2502
4233 -0.081946014897796349 -0.098539955739050181 1.7538155715708961 145 181 170 0.83554105030213077 20 3085 44 1344 29 2519 46 2071
5406 0.40053554771732869 3.3271831528184586 2.3784137104362308 199 193 179 1.0062932411791736 63 3368 65 2700 61 2250
5915 0.27539515700396161 -0.1803081388181875 1.9371255100781453 58 132 135 2.5546508614370973 63 5721 61 2703
4235 0.079003070822533453 -0.14666398887749224 1.7300178705894682 119 160 155 1.5103226612614842 20 1829 44 1352 29 1806 46 994 41 2696 24 2141 27 2191 38 1958
4239 -0.057775549478376889 0.17319280642990323 1.7023136674604604 151 172 155 0.93747667238791055 22 2570 44 1401 35 2394
5404 0.4443373650432309 3.2732530812919154 2.3828138432207697 199 190 181 1.2830282181427559 63 5616 65 2697
4961 0.2737475093351604 0.057479211242848188 1.708860826006541 50 92 94 2.1697332527510742 60 2756 61 6268
4240 0.0039832240665914967 0.12844163671146458 1.6356564565788576 150 177 158 0.35509473309288553 22 2380 44 1402
4243 0.27772995729857108 0.072891918377695097 1.6809656178835166 39 80 92 1.3985065143119029 22 504 29 391 10 331 30 218
4244 -0.053089347037054188 0.24221311134518933 1.7022290913478855 165 186 171 0.88946984100230087 22 2338 44 1421 42 1454 7 1098 8 1184 11 1413 31 859 12 1042 35 1440 21 1043 17 1648 43 1087
8039 1.4208348651389981 0.51179866877481484 1.4081523561104283 194 183 150 1.0422833394199025 51 298 58 276 77 394 72 742 71 697
4247 -0.0085946599112561497 0.71435381388190122 1.4401141736772551 104 93 78 0.24668363754943284 20 4771 45 2205
5476 0.64980577797958994 4.2989756579413969 3.5305126957732567 111 109 108 1.0037527959036885 63 4114 65 3198 61 4030
4969 -0.3792707814847559 -0.96373445351426268 2.2909986005944605 15 32 26 1.0167510457505655 60 921 63 4559
4250 0.16020331961538473 0.6590804953368683 1.3135170507120388 106 88 78 1.5514986412135845 20 4766 44 1453 13 3594 21 2167 35 2010
5995 0.20087309348614404 0.079221201487786802 1.578238758783036 104 157 161 0.021032039270460365 65 7292 61 4444
4973 1.4470181471769961 0.98490622606502576 3.7467648754548364 80 56 25 1.2487169849242772 60 2631 63 4797
4252 0.46057618971097336 0.59219053045764225 1.3103399279462462 121 131 155 2.7144104664042343 22 2134 44 1461
4253 -0.29247737892827019 -0.40160499518120696 2.0783669786961254 22 71 54 1.2787120167781743 22 629 44 1502 60 4777 29 2218 26 1365 10 1719 30 1518
4254 -0.037157890801903487 0.35460735658303216 1.7148890565339303 146 165 145 0.81705188992967748 22 2563 44 1504 43 451 58 3925 51 2855 31 449 42 522
4255 -0.019291372332738786 -0.27802331472379577 1.8548334930015025 51 102 109 1.6192900945538791 22 946 44 1506 29 2366 38 1799
5484 0.41590317817605871 4.1140459431458334 3.1897457651851702 26 20 8 1.4910169762293748 63 4203 61 5700 65 3260
4913 -0.11516628170383315 -0.37030709151872632 1.9487523971670508 131 166 162 1.3349928665497568 60 1523 63 1774 65 2494 61 4086 29 851 10 541 10 977
5939 1.5541219489737792 2.4694207494292773 1.668312974180101 180 184 185 1.8967372238357152 63 5933 65 3670 61 3130
4917 0.14501899508826085 -0.20663024472010844 1.8294777580117489 98 140 138 1.8306562307514413 60 718 63 1826 61 4235 65 2030
4260 0.45803796878952302 0.2842607569738736 3.7138428211254388 126 157 177 0.70140137828331861 22 1537 44 1550
5591 0.70988235997678717 3.983625602156073 3.0751930495504594 116 169 193 1.074671788576862 63 3240 65 3975 61 2128
4261 -0.42253448083588102 -0.80804285903762518 2.0058972547184264 102 119 113 0.96585562015852344 22 1518 44 1554 26 1841
5076 0.036016203663533905 -0.37550522876454562 1.9098837893200458 167 221 223 1.0961460494960578 63 377 65 214 61 171
5585 1.0903350736591386 2.0265968092845803 1.0534184155576629 57 69 85 1.0016291521730063 63 2295 61 937
4921 0.25497340127032242 0.20815161441570618 1.5522550180673109 50 91 87 1.6879201129955492 60 1217 63 1947 65 1494
4264 -0.031988253810435976 -0.64829738205154641 2.1302664727562868 26 41 49 1.8062214886239367 22 1386 44 1581 10 1658 33 1103 30 1453
4265 -0.28195204952794334 -0.5274134556610558 2.0079221191075058 81 100 96 0.17793497108177153 44 1592 13 2120
5080 -0.11546836654124813 -0.45434745981544078 2.0999378122755656 23 78 81 2.8299855525245117 63 431 65 230 66 46 67 29
5438 2.1042576169206404 2.5103588135761479 1.4327530422601598 119 127 129 0.94734161353453805 63 3545 61 1580
5947 1.5756220610318974 2.3182133385451014 1.3774782360935656 108 120 136 1.3782899602423624 63 6096 61 3219
4267 -0.26438960803396816 -0.43011400700763724 2.0794245092686259 147 174 152 1.7226410486273693 22 1627 44 1624 60 1562
6106 -0.47928500309819733 -1.1275558224522086 2.2273988817849459 0 0 0 3.2597812541245341 63 855 65 957
4925 -0.41262420154627905 -0.83356503594828169 2.1622546801707028 117 148 140 1.9953208601653365 60 924 65 1014
4269 -0.2736787865293257 -0.38277945710210637 2.0330988615216512 181 207 185 1.5249811818072594 22 1658 44 1643 60 4085
5084 0.41778792449257712 0.72693960497649157 1.2556768560017111 201 193 181 2.2602626264487728 63 174 65 279 61 277
4271 -0.041362507468484924 -0.40765707728641914 2.064844284603145 61 108 113 1.5048139022513212 22 1690 44 1660
5436 -0.10876742193364976 0.88002182359773551 1.2570146415962846 216 208 203 1.4107430191380883 63 3419 65 2922 61 6971
4272 -0.14071686737489247 -0.35416210543950505 1.9672320774165641 52 114 104 0.92681015087010576 29 2287 60 2350 34 1950
5382 0.30156135571451825 -0.26513187370210844 1.8582347059280957 150 194 195 2.0709449298348805 60 2456 65 2555 61 2150
4274 0.11248308637154086 -0.39960447859384746 2.0713722809579909 46 87 97 0.53309484749158365 22 907 44 1685 26 2015
4275 0.083228512587535483 0.55447944077506772 1.470052844993512 163 199 189 1.586236030831804 22 1926 44 1686 63 3289 29 2954 48 3679 26 1684 10 1211 45 1406 11 1181 21 648 35 1237
4276 -0.097817193230151589 -0.32636275140102317 1.9077343039912502 72 104 94 2.108832568907594 22 1751 44 1703 60 4261 63 5341 29 1353 44 862
4278 -0.0040841917934531739 -0.2210139785768776 2.3679255762185876 193 221 199 1.2879915690463866 20 172 44 1713
4279 0.1091255470910235 -0.36391409156276905 1.9705609148518941 23 74 85 1.3490594175081321 44 1714 60 4230
5380 0.030012596818346386 -0.29476387963793882 1.8526179038055912 78 139 140 1.5597946308272508 63 2971 65 2545 61 4194 10 1514 66 3732 24 2270 2 1623
4873 0.053452232110460095 0.18171942451671519 1.6144902402571004 100 131 125 1.5168737210364336 60 68 63 280 65 381 61 321
5390 2.4742653857220316 3.757105257673536 3.0717408175027501 166 149 142 1.2526701009632366 63 3239 65 2608 61 1993
4282 -0.091073291327098502 -0.24774603797178013 1.8374323674495598 176 211 194 1.7484681731282434 22 1813 44 1741 65 3201 63 5873 61 4216 29 2374 10 1767
4283 -0.11299729742194575 -0.21922489902631956 1.8670224281274972 123 161 138 1.6147929234077039 22 1816 44 1753 60 4382
4877 -0.19166808606766705 -0.47541649099009997 2.0371858467611448 47 87 89 1.706843435691366 60 172 65 512 63 433
4284 0.088859000159261736 -0.27250527606215846 1.8391908845739533 54 104 104 2.2374562977323436 20 2979 33 1243 44 1769
4285 0.17020045461304803 0.23972927400647737 1.5265801765693108 105 128 123 0.32791618777365883 20 3577 44 1787 26 2436 10 2037
4286 0.013614964629004791 0.47234799627406432 1.7033150720028658 114 150 127 1.9098498750783046 22 2582 44 1817 26 2457 10 2062 13 2784 35 1885
12047 0.14550875763414353 0.48201881346452269 1.6043205653559638 0 72 67 0.12386206301649097 22 1154 26 2483
4287 0.2090292103000663 0.348332744822546 1.5460935779097671 15 49 51 0.64504184105086793 22 1126 29 1933 26 1627 10 1160
5388 0.50941265938772895 4.0168958553991478 3.1423960635145485 139 134 138 1.1927735139021864 63 4208 65 2597 61 4120
4288 0.070704207933635049 0.52038236406080485 1.7412781357870186 94 138 113 1.2273737462486949 22 2256 60 5191 26 1635
5670 0.31240621796161244 -0.29494080991331811 2.0296484210414256 155 210 222 1.506390396048201 63 5291 65 6248
5462 0.60266259799207023 1.2739913672998422 1.0056724227057812 170 161 154 0.17954074943381765 63 2238 61 2617
4290 0.048104428533505557 0.43536733896320567 1.5584537531268965 145 170 151 1.0906125974890795 22 2246 44 1830 60 5252
5971 -0.1613335035036326 -0.43379038913640977 2.0101552862860173 137 200 209 1.9974152959062821 60 1548 66 1439 67 1652 61 4022 29 1691 30 1134
4293 0.38842409428410662 -0.31534317399640432 1.9032271781724961 112 153 177 0.79200700766775023 20 3074 44 1837 46 1754
6692 0.005447728064386031 -0.40869294835269282 2.0083628062567325 43 88 109 0.92897996213294576 66 5532 67 3390 69 5219 70 4083
8023 1.4624277150710627 0.52805084148593417 1.3100400122359044 201 185 152 0.85127986055003346 51 80 58 139 77 3151
4953 0.30911347860933791 -0.20820533800782881 1.8738925371720432 124 170 167 1.7361845595706229 61 4206 29 2500 11 1056 35 1396
4296 0.056328588695912868 0.57871206551185006 1.7576989319183129 153 186 169 0.96503921540286886 22 1493 44 1856
5678 2.0327550103961669 2.4887501914106336 1.3729738364837547 123 132 139 0.67805949828142542 63 6361 61 2715
5470 0.33577363258902704 -0.25303692119898963 1.8896584472737714 103 147 148 1.8834027965044666 63 5766 65 3166
4298 0.14084488822041841 0.45574993787356011 1.4688812347595126 132 167 167 1.8421504956706367 20 5027 22 1887 44 1869 13 2859
5979 -0.094751136068738487 -0.28878605640204913 1.8591670499511812 124 169 164 1.4700144819573528 44 1016 61 4189 10 1506 29 1738
6696 -0.1956765746900356 -0.42606484636296527 2.0028180146049599 97 144 160 1.992683353069544 66 5521 67 3422 69 5021
4299 0.11493051570831748 0.47727167774355261 1.4983860578786434 63 107 104 1.2333169984841046 22 1886 44 1871 10 2146 13 2798 45 101 46 131 49 305
4957 -0.059182736425021212 -0.034162216782875066 1.7432442828946295 130 165 158 1.3517002297496192 60 2565 63 3882 65 6687 61 6064
4300 0.28775518071306022 0.43944976425607024 1.5161569407238871 128 164 160 0.87933349200701616 22 1881 44 1873
4301 0.071404833374248855 0.52845470056132116 1.561542782907275 149 184 167 0.93336145807467563 20 4134 22 1895 44 1874 46 2201
6691 -0.18873803540931278 -0.43103633552020376 2.0176405690947123 119 162 178 2.1591852561160656 66 5567 67 3386 69 2087
4303 0.043514479603406847 0.6944429379804854 1.7181224453122164 131 171 146 1.5398767997441098 22 1313 44 1905 26 19
5468 -0.073401126241244105 -0.31662977268052234 1.8899284271414893 122 169 163 0.20305680538285081 44 1037 65 3134
5677 -0.13205938956734492 -0.28452874209065604 1.9194245567234685 184 218 217 1.344508376157491 60 4284 65 6379 26 2057 10 1857 42 1420
4304 0.10890714124744852 -0.2235519704873847 1.8212846030524896 40 86 84 0.27488211883117658 44 1913 29 2450 26 2142
5686 0.29056508194048286 -0.29051079318972428 1.8957509325248687 146 201 204 0.88662222667974167 60 4397 66 921 65 6446
4305 0.063575512102945778 0.77646548592158049 1.8063621434436599 169 202 188 0.73241530818898037 22 1959 44 1924
5542 0.34609934574472312 0.58459698064091159 1.38306607396249 190 240 229 1.1204858473815686 63 5553 65 3655 61 3170
6711 -0.10462876030092391 -0.36035144549814424 1.9180724136318841 52 93 119 0.41706014524478102 66 3637 67 3532 69 2241
4308 -0.053273909479023898 0.66538880298122927 1.3838715770370593 123 149 136 1.3978648265258096 22 2588 44 2001 29 3055
5029 -0.42155456509109879 -0.92607687777176195 2.1850637313802346 64 98 97 1.3331595609741325 44 798 63 1313
4309 -0.036089931137755972 0.68283074947571598 1.4078393385716685 90 123 114 0.046388335965085792 20 2203 46 1486
4310 0.10163808636581198 0.63728514200240183 1.3622433085678316 92 145 132 0.90194751534179873 20 4831 44 2009 26 2645 22 1246 30 2134 41 2815
6708 0.25881220272964534 -0.20533334976132286 1.933101915779954 0 37 52 1.8289463872489256 66 3632 67 3507 69 2797 70 2536
4311 -0.030168183358672548 0.69645395703856183 1.3868085166856305 94 141 125 1.7768725488370991 20 4808 22 2598 44 2012 13 2891
5540 0.18937933953276859 0.61512321524307934 1.3942304955526126 177 224 208 1.4085939899787669 63 6309 65 3652 61 6760
4312 -0.052462194027657533 0.70125087099803696 1.3721619504755542 157 192 170 0.32961233165946857 22 2093 44 2014
5033 -0.064086948046778253 -0.20781456295148631 1.8140545042056087 166 206 198 0.10217528791262792 60 1085 63 1825
5694 0.4258114768217629 4.1948970554270586 3.2326741362231388 128 124 112 0.89073734187289533 63 4202 65 6626 61 4285
4314 -0.080564717161904734 -0.17868029831288121 1.7961296116072059 186 209 193 1.5054510025374568 60 4211 42 1119
6059 0.10034798826247357 0.12537430910866912 1.6117058567560385 149 198 194 1.9659309677879513 61 6406 29 2655 10 1913 20 3939 30 1819 38 1489
6712 0.014459159447628801 -0.35379981119051007 1.9031234229748584 64 118 142 0.82451749570625632 66 3656 67 3540 69 5563 70 6180
4316 -0.52801586130761491 -1.0933786742440277 2.0328416653427155 249 243 203 0.18276114511676911 22 1324 60 1950
6707 -0.0017646860306931855 -0.37403761964843824 1.9304003207343206 94 146 168 0.58689609516401353 66 3611 67 3506 69 4005
4319 -0.093570207522955584 -0.065974280572003677 1.7639960928471752 141 177 160 0.60017154779231152 60 2519 42 1160 44 1356
5693 0.32487472759806107 4.2071185084075635 3.2636367413232596 154 147 154 0.8149016684442113 63 4188 65 6619 61 5666
4320 -0.13642465850237936 -0.073100756411719647 1.819547091403243 49 99 70 1.53305661225585 22 2486 44 2107
5494 2.6162628390794476 3.677363164062637 2.9820967906194009 207 198 199 1.3615897032803879 63 5408 65 3314 61 4184
4322 0.36664571012425046 0.46862805706135569 1.4416469401350609 59 88 90 1.2582056468193048 48 3598 22 1183 29 1981 26 1681
4981 1.3329508387154534 1.056296647244098 3.6025316500741043 164 165 170 1.5351246427824603 60 4704 63 4946
4324 -0.46497013730901054 -0.94139026643855139 2.0873513607953313 127 155 131 1.8934772222811553 33 147 29 199 30 313
4326 0.21096360480232787 0.31979426663256022 1.5360031170826394 129 167 145 1.5138428190187081 44 259 29 538 20 474 26 755 13 321 46 194
8055 1.6744761945740334 0.68258931835632486 1.4326486791379647 120 105 68 1.127682828171773 51 353 58 502 77 694 71 1428
5492 2.6433312055014082 3.6570006693771444 2.9942327088958582 216 209 218 1.4491927283119537 63 4679 65 3306 61 4167
4328 0.023178026910474075 -0.37918744024924023 1.9590941489441525 30 64 75 0.91385759232500297 22 390 44 596 29 895
4329 0.36345751296020112 0.44981421404469618 1.5083896878603988 61 103 115 1.1071471578882137 22 740 44 701
5502 2.2959631345115676 3.4103985166709179 2.553976796753211 44 35 29 0.75591932340883572 63 5593 65 3405 61 6041
4331 -0.26607641819131622 -0.5286389909833451 2.0517331569529635 85 104 99 2.5771524080707118 33 1135 44 823 46 1191
4332 -0.09275651565721546 -0.15967400496248715 1.754913498387759 185 207 194 1.741963002119022 22 843 44 1080
4333 0.28368630800012135 0.48642838719650727 1.4429321703061726 128 163 154 2.1645916736525219 20 4944 60 5523 13 1395 48 1900 26 2527 45 1404
4336 0.069129386498458859 0.29970945719177927 1.5842856432859396 176 200 185 1.0576525794057041 20 3618 44 1788 29 1916 46 2087 26 867 21 1572
5955 -0.13417461776225204 3.1373837926107973 1.8522275229281731 0 0 0 0.6566128839460017 63 3484 65 7807
4933 -0.13911498363044747 -0.60413597337730041 2.1210838302191508 0 24 22 1.2009027796255847 60 1618 63 2780 65 2363 61 1904 67 486
4340 0.13141538332366176 -0.0049019383693085661 1.7014245768578977 139 171 158 1.6352658698049285 20 3310 44 2095
4345 0.0013288333551955153 -0.42745511655534812 2.0952664806165999 24 55 47 1.2011864994527468 44 151 29 158 26 147 10 121 30 90 33 98 60 106
5454 0.58641345552274227 1.1540408343823361 1.0575820066002328 76 68 57 0.02677564723960878 63 6052 61 2585
4346 -0.073053368522790957 -0.38940023164770377 1.971796393518007 76 118 106 1.6527071833177391 44 227 60 107 63 187 61 127 26 120
4348 -0.14855134686490448 -0.46749779454412249 2.0696343043679173 93 140 124 2.0968849852608553 44 132 60 171 63 369 65 229
4349 -0.089912231819309671 -0.55268950322270338 2.0492445997038007 111 148 131 1.7991692398648453 44 154 60 174 29 208 26 408 10 107 22 129 26 1917
4351 -0.30770709898769744 -0.39653890111806861 2.0947122952129598 106 153 131 1.8351692413858296 44 133 60 217 46 45 39 131 34 47
5452 1.9575255522576562 2.4099352606432762 1.1702512803504634 111 120 127 1.2819237947181985 63 4272 61 2537
4352 0.055974447287782378 -0.44389729574810999 2.1321522713548298 27 55 44 1.5973873319151668 44 102 60 218 26 146 10 145 45 184 46 115 29 252 49 462
11443 -0.12503850718551374 -0.66692909026629887 2.1363088452258623 99 132 134 0.44934743474817118 44 931 29 2107
4355 0.15251845545418863 0.26669456002742031 1.5280851118440821 158 201 176 1.4661098602822107 44 200 63 687 26 297 22 167 10 257 46 216 13 624 45 1913
5810 0.10602208535172009 2.7982521110738081 1.7148738977798654 190 193 197 1.7628972523958037 63 145 61 102 65 101
4356 0.034719504774619679 0.50794772171478142 1.6762340925250219 185 229 193 1.8781726455411072 44 266 42 182 43 213 7 355 17 423 8 455 4 622
5303 0.50095809088510757 3.9415673267654077 2.8479487962261532 61 52 51 1.1896605679741796 63 2041 65 1716 61 1754
4357 0.17267414193011635 0.26844671212574439 1.457508788115742 100 147 127 1.3012086386580721 22 110 60 275
5297 1.9152521448412168 2.3887158485035718 1.1366616770632807 118 127 135 1.7638736579175007 63 3632 61 1641
4359 -0.002798515451947918 -0.27462076423622639 1.861495052578668 126 177 160 1.4149203265554309 22 217 63 954 65 853
4360 -0.27226769397949896 -0.43299462298983332 1.9841001826497471 202 238 202 1.3734112600760424 33 184 60 330 29 429 26 346 10 298 30 162
7355 -0.066267290205987414 0.22213021237824876 1.8117305351497197 199 233 196 0.82600759417110436 43 189 51 323 58 443
4792 -0.054866795817010011 0.30724543645110897 1.7214304789548427 175 201 178 0.73337071099367801 42 370 43 444 51 2824 58 4704 17 830
4361 -0.048735866140171794 -0.56480060572494772 2.0698170859722884 83 119 107 1.3190437079599671 44 220 60 332 63 765 65 507 61 897 67 318 69 584 29 219 20 162 10 252
11397 -0.38100108181388082 -0.83529701076436236 2.081918892831176 38 74 80 1.4567110342573926 33 349 29 616 30 310
4363 0.23309751783753582 -0.15314845672430399 1.8984717231283907 82 130 114 2.310502043806193 44 481 60 374 26 251 29 513
4796 0.078429078188307522 0.41315056065728717 1.6331778046481231 159 187 159 1.3604325470750029 44 178 43 466
4366 -0.28655227126181126 -0.43289272873469248 2.0996721041754411 89 147 107 2.0329129220009312 44 221 29 410 26 347 46 537 13 1997 20 1689 10 433 30 616 60 446
5305 0.24349449375477702 4.1285236421513574 2.9709934263714959 84 67 49 0.97211583476079311 63 5462 65 1724 61 1775
4369 -0.076878481919346153 -0.26375658828256721 1.8457564345701738 180 222 198 1.2538515672117381 44 229 60 459 63 955 65 851 29 414 10 307
4370 -0.13923471201686208 -0.011502106425143214 1.9426863645424817 155 194 164 0.25995483923904078 60 465 26 211
7309 0.053432842596511897 0.50738114045295313 1.4320338270167463 70 127 147 0.70697007088635311 69 2530 70 2609
5762 0.255360882246081 4.5622097881984107 3.7088638820533122 129 122 116 0.11577517413555372 63 4087 65 7722
4372 -0.41935604580457503 -0.87416644728165271 1.9876415253202222 38 69 53 0.91103269949007759 22 283 60 558 26 509
5255 0.30539614900541628 0.79219615897384754 1.1944171717394207 160 152 141 0.30378708297210077 63 1371 61 915
4740 -0.0053101029647226409 0.094295267353342496 1.6885444071626483 116 148 124 1.0795704907664543 44 246 42 301 29 524 33 487 49 1209 46 203 30 551 43 347
5249 1.9500320982217889 2.5316957674805645 1.5691178398193129 127 137 149 0.46809333777561091 63 1173 65 1379
4375 0.25551931015050611 0.46739997563299718 1.5163269519330036 90 139 118 1.1819091022581421 44 393 60 596
7307 0.097037337452087646 -0.39400347901619975 2.0419069278232054 107 161 182 0.62308373137278672 66 5626 67 3335 70 2346
4744 0.10484437783195928 -0.011608400830482713 1.6714484104446283 180 205 186 0.050447319847419056 44 1121 42 943
4377 -0.25248514027967423 -0.59213056890239857 2.095262427946698 106 108 103 1.7150726996115206 22 415 60 657 29 2126 10 741 10 1411
4380 0.095319410173852412 -0.31110033171624146 1.8663135463313907 158 205 195 1.7051243940083463 60 710 63 1496 65 1248 61 626 67 353 66 465 69 530 70 337 29 493 44 336
5263 1.9487419259108241 2.8454831086634624 2.0239551461443805 178 173 167 0.97441512263212127 63 2126 65 1504 61 1649
4748 0.086858862621514238 -0.057347584429674192 1.7242926299556922 121 157 149 2.2712213698740031 42 1179 30 1732
4381 -0.14415167582371968 -0.22442398885010989 1.8883215775018372 191 234 207 1.1448795846888609 22 310 60 711 26 705 10 551 30 1604
4382 0.020226518373881126 0.39655093434383049 1.7057080220348297 167 207 170 1.855865258865282 60 762 45 265 13 2737
4383 0.057754296093879345 -0.042244284513794202 1.6825998051939184 131 176 156 0.094350089888735 20 885 60 775
4387 0.12159937776996051 0.29630491155648653 1.5440903411392215 129 166 149 0.98394860076387058 44 676 65 2720 61 4482 10 616 30 543 41 491 24 1073 28 2271
5714 0.52327220708069211 1.1086448826004156 1.0749564734303991 139 129 126 0.29120535533377212 63 6027 61 5388
5207 -0.10811237582899637 -0.66369289954749811 2.1093228403348774 35 58 62 0.60388087632175036 63 1695 65 1167 61 851
7110 0.26666549469100731 -0.2120798009201447 1.929673418468554 7 61 83 1.3246844343972086 67 5703 69 4110 70 6666
6080 0.13441841249824465 3.0026229944802543 1.5288920787352596 173 177 176 1.1550932796179798 65 5896 61 6864
4392 -0.4133365990178906 -0.88439398946350956 1.9941649076378221 85 116 100 1.3864652160312696 22 658 60 925 26 1068 10 1049
4696 -0.2256143135643951 -0.3097602055219722 2.0629791540742644 168 191 164 1.1596800953469379 44 998 42 681
4393 -0.43546936471074132 -0.85821391796837265 1.9660957137735116 112 148 123 1.8521466834363371 22 1361 26 1837 29 1264 60 928
4397 -0.30083681080626457 -0.44122527718256777 2.1024346439490209 145 210 172 0.1446738397953557 61 3935 33 1001
6095 0.31463327171956607 3.2092292527962472 2.2382657080826394 162 162 154 1.3647658719645785 63 5697 61 7354
4399 -0.25739439290447419 -0.35635619439342525 2.0482541148488154 72 116 81 2.0843382711142757 60 1045 42 269 44 317
4768 -0.058600835625755056 0.21802870830399676 1.7231069058140913 176 204 181 1.6789179149517803 42 202 43 238 51 1527 58 1801
4401 -0.1487559442705691 -0.21821126226424306 1.8434935664570513 175 218 190 0.75002023714824662 22 867 29 1760 26 1181 10 552 13 3691
4403 -0.11323682595545617 -0.12824052535651814 1.8220351428728905 199 245 209 1.0696618925013699 60 1090 10 936 29 1791
5794 0.077836871376124078 0.87967980569826809 1.7536179125887799 119 161 146 0.34251447111649336 63 4189 65 3442 61 4427
7133 0.0025604715482324988 -0.40715519109486636 2.0501465648473958 36 72 99 0.52337993159862017 66 3456 69 5064 70 4015
4405 -0.093379066226729007 -0.29458447684228101 1.8819760288541232 190 230 203 0.77025249648347616 33 1265 60 1122 63 2961 30 1179
5281 1.2637892164474744 2.2751576111559442 1.5586891143374899 111 118 126 1.9331001431823676 63 1165 61 1553 65 1591
6096 -0.099266816772068042 -0.2956071117968464 1.8994713078193035 189 220 209 1.552173615066281 44 867 60 2393 63 5369 29 2342 10 1859 30 2224
4407 0.070769567528301575 0.46898903887321686 1.5346854484664607 189 223 196 2.2403099611405293 60 1144 29 2861 26 1647 10 2119 42 1513 21 1757
4408 0.086514814142855223 0.56017672124763396 1.8149857650477603 192 236 200 1.6164339905485317 22 2259 60 1178
7339 0.22976679085220533 -0.51013162026003267 1.7991092418564021 56 105 122 3.5466941855929814 67 1944 70 7212
8155 1.4005319131685083 0.55683371758790101 1.5539120810663805 236 217 184 1.025657919290484 51 3825 58 2483 77 1527 72 4271 71 5632
4412 0.23768825245496586 0.2050726508254137 1.5199333138266633 58 101 81 0.83698087836153334 22 595 60 1212 26 863
5295 0.35535890255663349 3.286608026244767 2.3076796836774909 204 200 188 1.2537771439972831 63 818 65 1659 61 1708
4414 -0.017196068230382364 0.31863216097005037 1.6665449846973663 161 198 165 1.3495623514419213 44 514 60 1226 42 405
5289 2.6681747052728708 3.4341658321999944 2.5538534164183555 147 129 105 0.61361837413962883 63 2079 65 1631 61 1729
4416 -0.11023039492509112 0.027729394161541847 1.7918085361663232 167 203 176 1.6306810546588342 60 1384 46 1031 34 1010
11507 -0.18462743311430771 -0.22639978646771608 2.0106902307841232 53 130 124 1.4195434051890197 29 37 33 48 26 42 10 33 30 84
4848 -0.31847043606168812 -0.65807477920002877 2.0837294976271212 97 118 100 0.85642090853946196 42 827 43 1253 58 3273
4417 0.028423228387224775 -0.089307294947212984 1.7176145462919634 128 175 157 2.1656934640110599 33 759 44 1105 60 1406 26 667 30 1709 11 1396 13 2467
4419 0.10403180672988706 0.078115553676697105 2.2423520499105414 84 129 109 0.4112241700261231 20 1112 60 1438
5874 0.61665878360927961 3.409713718512692 2.5385025829803438 118 119 123 1.0546947374852615 63 1036 65 1025 61 1728
4420 0.0063626032168354277 -0.17338736175120797 1.7722243822000772 176 228 206 0.94447960366986727 33 644 60 1442 30 1209
5367 0.092845163465302 -0.37793730258783964 2.0939567078087826 20 66 81 1.3777256463167458 63 2866 65 2431 61 3012
4852 -0.13615455418722802 -0.085065871660169629 1.920258362974814 131 168 136 1.9287115183169259 43 1418 31 1300 42 1246
4421 -0.10325744552478726 -0.16250503590499824 1.8123644975128255 206 250 217 1.7482256098695725 22 2000 60 1449 10 2583
4423 0.13125149450884258 -0.25274544015354905 1.8537650475070961 72 115 98 0.68535374130524485 22 850 60 1466 29 913
4425 0.085123216298702731 -0.28086947206933677 1.849243994339669 91 135 120 2.3673122442862864 44 607 60 1474 29 1232 60 2426
4427 -0.042530047521224128 -0.34446251277662937 1.8917487707289107 113 152 142 1.9706848056608279 44 865 61 5733 65 6384 26 1419 22 922
5882 -0.14915507353739427 -0.39311714892330946 1.9913297223466557 154 215 221 1.305813003118979 60 1124 61 1838 29 1328 26 1136 33 281 30 601 39 1888
4860 0.01696588972345224 0.50884243134122364 1.713189387138621 124 151 121 1.4301092181187487 42 546 43 1684 31 1526 17 1734
4430 -0.010155279769237645 -0.38342958887335205 1.9590332123779419 110 148 135 1.469641076392513 44 991 63 2913 29 1345 26 1153 22 300 10 974 60 1521 9 478
5369 0.30005462834396807 -0.27204217858374047 2.0580274136283672 161 206 203 1.5401995389843681 63 5272 65 2477
4431 0.032551093856119574 -0.40689038744454531 2.005059048089004 125 166 152 1.5191209449846157 22 900 44 856 63 5226 29 1341 26 1149 10 1781
4433 -0.15210041583555681 -0.41733487771688749 1.9794374250335895 135 182 166 1.1149495980754021 22 1446 60 1537 63 2894 29 2237
5158 2.4030214678407016 3.4327009906208836 2.5448854842577622 56 42 47 0.7994693191674288 63 654 65 794 61 818
4435 -0.048806181513473393 -0.4643786477657102 2.0921850439440397 84 120 106 0.51195505172987354 22 627 44 840 60 1559 29 1226 26 1044 10 1007
5826 0.06851890723494744 -0.38861278555061329 1.9945810374439836 110 166 181 1.2689635253796296 63 940 61 412 66 190 67 183
4436 -0.22726635298200229 -0.45268187851395503 2.0138386336139926 166 215 194 1.7516790692719097 60 1560 61 1862 22 433 10 1011
5319 0.61209665310396211 4.3329537608991089 3.5291568558158897 139 128 125 1.0943700471794695 63 1940 65 1781 61 1842
4438 -0.052824434321902078 -0.64001666608454988 2.050234624590574 110 132 125 1.4215004084877711 60 1607 29 883 26 1087 10 1030
5166 -0.067166488144513745 0.051876827550653377 1.7358013775981442 204 244 236 0.78470831219833281 63 972 65 823 61 809
