# 3D point list with one line of data per point:
#   POINT3D_ID, X, Y, Z, R, G, B, ERROR, TRACK[] as (IMAGE_ID, POINT2D_IDX)
# Number of points: 391, mean track length: 4.2731277533039647
2089 -1.7590512465432184 0.81808376683171313 4.7393696486563828 118 214 207 1.0575991415535766 26 335 32 308 33 213 27 407
1741 -2.2159827103556298 1.39959072628756 4.1788814694695198 68 72 52 1.3052892128221412 16 780 45 492 42 793 44 815 4 414 29 379 49 711 35 712 12 704 39 644 13 403
1742 -1.6395653034558542 0.79673794553894084 4.8112397535531963 11 28 26 1.4050624280437263 44 991 34 978 6 958 23 798 22 1290 4 660 29 705 21 511 25 592 28 822
2319 -1.9630626445704837 1.4864927844805371 4.1066152144053172 189 182 164 0.31371784131127362 35 205 12 442 20 398
1747 -1.8269970178899084 -0.45028249053327318 5.935868435213977 52 68 65 1.2242430773524038 21 185 43 387 1 297 7 19 37 15
1749 -1.4176197156483787 1.6877031639676516 4.1015433963548116 44 36 25 0.87457446371556946 28 435 43 573
1750 -1.4235241406582064 0.35455099987955613 5.4335308103140454 40 56 53 1.1903204307081505 28 595 43 737 37 466
1753 -1.7215436122039718 1.6601455278436295 4.9237379230819229 22 45 46 2.6391356644763477 28 189 43 906 37 752
1754 -1.5792182364763598 1.6377323016261738 4.6173971685847546 64 110 98 1.5109209890902526 28 722 43 908 37 609
1755 -1.643127614216856 1.4217844616554285 4.9217793270246641 49 82 87 0.51734144302909579 21 520 43 968 37 815
1763 -1.5498045327724872 2.0444000059929501 4.8738778360174955 151 171 196 0.53212391132052272 21 169 43 352
1765 -1.6572944358713233 1.9019936210813804 4.9008172363499867 34 31 26 2.7875544683121269 25 691 43 1013
1767 -2.0340185788850582 -0.5365026939849159 5.9095286474139952 35 39 45 1.3547886504969864 39 33 49 26 38 239
1771 -1.7266444477359792 0.82870569733218824 4.7642661469702929 8 18 18 0.26455932314845226 42 444 49 164 13 82
1773 -2.015162965634719 1.0962710492803369 4.5978395854222889 173 227 202 1.5281561631204521 39 171 42 187 49 189
1774 -1.9581996831567601 1.4032100391924518 4.1985779913038952 160 153 124 0.58929876848623308 39 216 49 227 23 171
2351 -2.5188983430750036 1.5802229860876387 3.9745753915122428 67 64 51 0.22340936827329458 12 215 35 211 20 231
1778 -2.1800766181456956 1.5219394636190573 4.1273811724491454 139 127 108 0.42769698531275441 42 256 49 277 20 226
1779 -2.0083173609407967 -0.56345660049787083 5.8901657490850887 26 25 27 2.3538701430211479 38 401 39 271 49 314 12 20 15 656
1781 -2.1067866606845076 0.96359346973366855 4.7561816562733421 203 237 223 0.65663051380319093 45 289 49 420 20 577
1782 -1.5865014332540612 1.0337558214963287 4.8799710283688285 18 35 33 1.8724799138882151 16 177 42 460 49 427
2375 -2.1721521552256537 1.2046305589375383 4.6728306161944104 49 77 65 0.60468536766861603 12 582 35 566 20 594
1785 -2.2230499833350832 1.2178189834241291 4.7704902701963947 224 246 240 1.6444464614316447 45 148 49 442
1786 -2.1859192563786749 1.2910594418874259 4.6934736409070252 70 114 101 1.4620433991246102 16 202 45 306 49 444
1787 -2.0165175836922189 1.3896003293728942 4.2686220045944383 177 219 197 0.81535579393504864 42 222 49 461 13 122 45 319
1788 -1.8527511531746024 1.4013457264838116 4.2399134472348097 67 80 72 0.92714587108944413 16 220 45 320 49 462 20 209 13 124
1789 -2.1965421928358428 1.4294853294166894 4.1762650729471469 99 89 80 1.0462826280694295 39 372 49 469 35 183 34 229 12 430
1790 -1.9809497214039034 1.4626745155354421 4.1782861427068241 181 165 140 1.1503775711713888 39 377 49 490 14 214 24 244 27 224 23 388
2367 -1.9554449928727931 1.5321240566919299 4.0817929020839223 56 49 36 0.86934144231076538 12 220 42 533 20 408
1791 -1.8439887481051789 1.4617351085714454 4.1677743513733851 174 160 133 0.71402311061035928 16 251 42 517 49 492 35 201
1792 -2.3319224152510456 -0.3241339748687887 5.7579081457441958 206 244 229 1.2472209649680728 16 429 45 240 49 528
1793 -2.0836979241324944 0.89004112199092289 4.7999007172307246 209 239 230 1.4552656696697781 42 452 45 286 49 564
1800 -2.199683579949105 1.0287249045712579 4.8619537890334898 208 241 221 1.509540506819786 39 477 49 656 46 419 12 682 47 358
1802 -2.0906314565294979 1.383321717899348 4.2574448788060781 177 225 208 1.3971477423840908 45 490 49 669 13 295 16 539
1803 -2.0547804615542344 1.4647658588301706 4.1700074136394134 163 152 124 0.69581537773352231 16 668 49 672 42 795 35 586
1804 -1.4577304291778606 0.47981621968178467 5.5394447978060484 56 104 152 1.3371364842293154 42 866 49 697 45 543
1807 -1.8375710484512711 -0.064443775380503429 5.5739095204908171 0 0 0 1.7716189814257775 38 681 39 697 41 813
1810 -1.9894541412229649 -0.34897643146276086 5.7640301030636296 192 231 212 0.39097530731866614 38 697 39 736 49 800
1811 -1.8706331058002263 1.498185139908796 4.1344669448794056 180 165 137 1.6559953848148723 39 778 49 818 33 505
1812 -2.2954533920886129 -0.43797338017547321 5.8238379880061606 196 229 209 0.29523839334601892 49 821 15 1138
1814 -2.1618696475127956 -1.2241914391131867 5.7714194725513801 0 0 0 0.63524679220760238 38 382 41 290
1818 -2.2471763586857563 -0.3778687403993054 5.668338553551644 22 99 105 1.3888980562645579 16 45 38 254 39 41 24 41 14 31 32 36 33 24 27 39
1819 -1.3462508764978256 0.19831952606956033 5.486565036362177 103 133 121 0.7237268811157862 16 84 14 78 24 96 27 88
1820 -2.0769869030104808 0.3803168610489151 5.0625631299354366 110 157 149 0.48288915043214525 16 105 14 106 24 131 32 92 27 122
1822 -2.2332279841664531 0.79153381851984539 4.9173429371405266 97 133 123 0.72284238116704935 45 283 14 125 46 295 24 362 19 297 35 391 12 354 20 487 47 251 27 151
1823 -1.7436402589633575 0.76657156909582391 4.7806705034843784 91 128 120 0.72011987790955279 26 329 14 130 32 125 27 158
1826 -1.9036413675092392 0.95522934534553627 4.6938498757487439 78 115 107 0.30832838249711697 16 491 14 145 27 418
2508 -1.8837025241087304 -0.11365463446335591 5.5593644260956321 107 146 151 0.26823604149390395 14 55 24 67 27 62
2653 -1.5991249047755738 1.6820155097739165 3.855201357289828 43 42 34 0.84283125797070735 6 919 42 896 13 531
1827 -1.7600613069213635 1.0672767807923911 4.6344748836291121 118 170 165 0.29328142578641797 16 507 14 156 24 385 27 185
1828 -1.9387186438842063 1.4837728993102763 4.1543565169100942 113 101 86 0.45672012077019453 16 260 49 499 14 218
1831 -2.3537469687462145 -0.71805316730947588 5.8299955467691591 103 139 133 2.7807553990044966 42 17 14 272 27 335
2134 -2.0160727866070896 1.577407578853512 4.0800110449851168 30 32 37 0.090054255363159877 14 778 32 642
1834 -1.9748164722207571 -0.53715995758170831 5.9012734431947447 137 186 174 0.68611787769990396 49 319 14 280 24 25 33 14 27 24
1835 -2.1276432216699313 -0.089769082387848489 5.4861906823859483 112 156 142 0.57771928536146588 16 70 14 307 24 70 19 80 27 67
1839 -1.9102353261442533 0.36536619469380688 5.0383288806953503 128 178 173 1.0745089468747986 16 102 26 104 14 340 24 130 32 89 33 65 1 148
1840 -1.7184380152372236 0.64807919733462704 4.8755153709665127 114 162 150 1.2260004609305348 26 320 14 348 32 296 33 201 40 440 27 397
1842 -2.0363145250383901 0.80087711945634632 4.7921289014538511 73 108 103 1.0403616776459317 16 484 42 442 14 358 35 538 27 406 32 130
2524 -2.1089410756114293 0.30807122531157166 5.1064045176860349 108 152 151 1.1341259698411632 14 336 46 284 27 386
1844 -2.2815203402524049 1.1208744955028829 4.8920157574378376 57 88 82 1.7788136145182707 14 370 46 309 19 317 35 557 42 480 47 362 27 179
1847 -2.2587184906021118 1.1383287648131348 4.8946224386377351 117 160 148 1.7506667784386081 16 514 14 373 49 576 24 379 45 134 32 148 27 424
2214 -2.2595258429188134 1.3669145910557639 4.2508626802473257 107 155 142 0.81037285003735982 14 803 46 638 27 928
1848 -1.6971724931546139 1.1025151658054391 4.6899682399776275 37 63 60 0.3420085065497056 16 654 14 381 24 386 27 428
1850 -2.0223536235735571 1.1995762943131685 4.5056430270400183 136 181 177 0.50821469761705085 39 354 14 389 24 541 27 440
1855 -1.9650428659361721 -0.51218584362137154 5.8770013382952406 51 71 69 1.4341559561819728 14 438 24 458 32 460 26 507 33 325 27 526 46 367
2302 -2.2026339524483767 0.86750821651817311 4.8666594599714568 77 113 110 0.32611839810015247 39 155 12 107 20 142
1856 -2.4077394869764821 -0.32652547773657931 5.8399515258277539 61 103 101 0.38427094913990628 16 614 14 444 27 344
1857 -1.9037772597414626 1.2382736134201453 4.5902779931006563 48 88 80 0.46819776273316654 16 774 14 515 24 540 27 594
1862 -1.8562493701702023 0.87467017832345451 4.6641212929168789 37 62 59 1.5240218091179059 16 852 14 618 49 737 24 619 33 397 32 557 46 418 27 695
1863 -1.9275347089832076 0.97593004717659482 4.6832501425648614 69 96 95 1.4182411689863323 16 856 14 620 32 502 33 400 27 696
1866 -1.3237318484487928 0.25752105104234158 5.4974867828820795 50 70 69 0.69494397667488561 16 904 14 678 24 667
1867 -1.9052225218643053 0.41973378525658334 4.9932256960851404 121 164 155 1.0542649413821894 16 843 26 541 14 682 24 609 32 544 33 387 27 780 13 570
1874 -2.2709822485770923 0.44962480388220927 4.8714951020324264 126 149 141 2.9368906528905705 42 926 14 793
1878 -2.1127599881883992 -0.74418284418636527 5.9221794580832592 171 178 194 1.4805980452009961 16 1025 24 822 14 832
2087 -1.808151439457391 0.22408345090437107 5.1810708530513114 96 171 184 0.72874449073627334 26 432 32 280 40 500
1883 -1.920235341859897 1.4946149782471847 4.1517006076272116 161 143 117 1.0784677919451433 34 690 14 528 16 669 45 496 42 796 32 339 24 421 33 233 27 467 13 298
2600 -1.9233048752784414 1.0530465152418822 4.6728921819705205 10 20 19 1.3921171569613484 16 650 44 794 49 569 13 274
1884 -2.0874518390349008 0.46992952706193053 5.0265406039923404 138 180 164 1.8561777081979005 16 946 39 707 49 785 14 755 44 943 32 621 33 472 24 722 4 603 46 599 19 583 47 482 27 877
1888 -1.9468146629486485 -0.58099484801871537 5.9326758898297314 61 75 75 0.98038249899041219 45 617 14 741 24 746 27 863
1891 -1.3903756980897843 1.2507149253184502 4.3915639666553359 168 176 189 2.3020010854012307 16 1041 14 841
1892 -1.6949091725356138 1.5646406447857482 4.9588744484674638 177 195 203 2.4243665942619801 36 528 25 366 29 147 28 713 17 637
1893 -2.1928941767443879 1.4972884489061811 4.1375739357559347 96 85 69 1.4265323404753028 16 784 45 560 42 889 44 822 14 635 34 791 4 548 24 692 32 518 33 368 6 777 27 716 13 505
2198 -2.113611672188306 0.97587067327626298 4.7400971500905564 176 195 181 1.2574966101924943 14 368 46 420 27 172 19 314
1898 -2.2228235976929285 -0.22145101993946412 5.6274035820406247 73 159 155 0.78177212055395895 49 350 24 55 46 252 19 253
1900 -1.9324281237867784 -0.15518945954625354 5.7116840762964829 12 77 94 0.51780466861853747 14 45 24 60 32 49
1904 -2.187287762820405 0.026397143048149826 5.4138554087587138 205 251 240 0.92913137866877893 14 69 24 84
1905 -1.6084328645986088 0.31528413330955568 5.6921175372029991 3 77 83 0.93078918352227047 14 80 24 99 27 90
1906 -1.7492451747658961 0.15084940885566211 5.2887665587938333 75 162 161 0.69700992641317616 14 84 24 101 32 401 33 278 27 368
1907 -1.3687548861025789 0.22042699657276679 5.4213772807945606 60 133 136 0.9688374271556589 14 83 24 102 32 72 27 91
1910 -1.761593636116227 0.20485464238193957 5.2537780706079618 46 154 157 0.74233344412567182 16 86 24 111 45 259
1911 -1.8069147116755444 0.21185673246410919 5.1690145129693246 59 137 149 0.3481251424890115 14 96 24 113 27 107
1913 -1.9084905473506337 0.34676406686819899 5.0509776178438539 81 179 180 1.1766494814657991 14 104 26 102 24 127 32 88 33 63 12 76 40 425 1 145 27 121
1914 -1.6750228987296092 0.61768339671988981 4.9022093993764218 74 165 171 1.1702202902704077 39 132 24 146 27 140 32 112
1915 -2.2288998926600714 0.67348734538434396 4.9791924829534651 119 179 167 0.5948390723551954 14 116 24 147 46 129 35 104 20 335 45 279
1918 -2.1853418616622338 0.7967865326750363 4.8714586185139908 131 188 180 0.38419391658018476 14 129 24 162 46 142 19 138 20 341 47 255 27 156
1919 -1.67249664341242 0.83506077995523675 4.811725142612473 0 50 50 0.47936454035649306 14 359 24 166 27 576
1922 -1.67572534233005 1.0470923255332578 4.7290220170950059 55 125 131 0.25150478288985995 14 149 24 186 46 160 27 180
1923 -2.1940484419571233 1.260354377635879 4.6285517888289807 177 228 224 0.34407698565974582 14 169 24 207 19 177
1924 -2.0623935966748674 1.248328438019318 4.4937288528453161 77 172 174 0.74395636566736034 16 523 24 210 46 178
1925 -1.704601806434197 1.3129981349183513 4.5283990191436523 55 135 141 0.22158125688777339 14 176 24 212 27 202
1926 -2.2929049434310995 1.4851655830594881 4.8006800040447803 207 250 240 0.44379333655700076 14 172 24 214 19 186
2071 -2.2526879639456068 0.47773884552238066 5.1213418040191279 29 127 117 1.4625343411926111 49 389 32 99 16 115 33 73
1928 -2.1048897985397756 1.3340623368576063 4.3558958706622928 54 160 144 1.0042723753415068 14 190 24 224 32 184 46 342 19 348 27 217
1929 -2.0897087414096762 1.3753305080488532 4.2395676449377655 126 204 191 0.7746528910068825 14 197 24 230 32 191 33 231 46 350
1930 -1.692144715566251 1.4003369590813644 4.2163835027975463 171 220 201 0.61952628579248614 14 202 24 240 19 222
1934 -2.1525638198667987 -0.40758074791970822 6.0034701131473396 0 0 0 0.86539663803649303 42 37 45 28
1935 -2.105751516361607 -0.41938589538522475 6.0131952446207775 25 75 79 0.68936829363343832 14 23 24 303 27 29
1939 -2.3492867146460803 -0.2167518729747222 5.6878442495633719 25 94 82 1.4716621373938896 14 297 24 312 46 248
1941 -1.9969261222271228 -0.10942820825365736 5.4475604909335509 0 54 63 0.63309889166380895 14 306 24 319 27 66 46 74
1942 -2.3436252853253365 0.10115247472169828 5.7585840471152805 9 90 75 0.47488704698667028 14 311 24 320 19 84 27 74
2151 -2.2021029195879902 1.0147392559481316 4.8815005987398736 37 119 114 1.10388910990794 16 174 32 313 33 99
1946 -1.4245243670491461 0.22655303912653837 5.5015827667980233 30 120 129 1.4933844403816485 14 466 24 332 32 71 33 43 27 367
1947 -1.3546998135643293 0.23308926708194108 5.5022492473591393 0 57 59 0.56503914033500469 14 325 24 333 27 369
1949 -2.2195816517722271 0.25894859324113551 5.2357992704952618 207 247 239 1.2710173496278485 14 330 24 342 35 520 12 534 20 465
1950 -1.9800994021883678 0.28065976919193597 5.0936683903848117 159 220 212 0.84325077411210358 14 335 24 346 32 284 46 282 40 419 27 385
1955 -1.8440244616446868 1.0948514952830664 4.6613457882121416 0 87 83 1.0924796891284227 14 382 24 388 46 163
1956 -2.1402259261804129 1.1140555184842718 4.6877976465281899 132 189 172 0.37003525899352141 14 383 24 389 19 328 27 186
1962 -2.0311017377277309 1.2471363219269089 4.4920538928286158 136 197 192 0.59653971922972382 16 525 24 397 46 333
1966 -1.9281343369708399 1.3767127584101782 4.4741819620806966 55 149 146 0.84486721267721054 14 523 24 403 32 434 33 227 46 338
1969 -1.7731968288313522 1.5111467682819912 4.0856351613960289 213 187 160 1.5571806476960912 14 532 24 429 27 475 32 345 33 238
1970 -2.1306665932930438 -0.48267310474287567 6.0226449672400246 146 190 212 0.59520593696645308 14 278 24 457 32 377 33 255 27 524
1973 -1.8564839969699474 -0.13953489480379641 5.9483640406577969 140 186 209 1.6313793030635171 14 449 24 474 46 378 19 457 27 655
1974 -1.857603637358934 -0.14663142612440283 5.9355517227220318 140 186 209 1.2297115513789991 14 450 24 475 46 379 19 458
2055 -2.1638627428587216 1.5049924468315752 4.1370784228982131 90 80 69 1.1377302936147942 16 549 42 694 44 534 49 595 24 251 4 225 14 226 27 234
1976 -1.2930727142612386 0.14507100143894613 5.5829561926631532 23 78 79 0.29072282017652462 14 579 24 483 27 551 14 459
1979 -1.9833670122858431 0.18416199902346608 5.1662218456764926 125 202 194 0.20719265790453587 16 449 24 490 19 283
1981 -2.0845609661711704 0.54725608566695016 4.9826558070581646 58 138 131 0.9729237997933049 49 644 24 504 46 408 47 244 27 394 32 105 33 79
2562 -1.5581784858675907 0.1434230970049544 5.8287826608549427 77 162 243 1.0217741197260517 24 797 27 941 19 628
1982 -2.118723668085841 0.68606183034868862 4.9337640056532868 126 190 173 1.3257632139958944 14 487 24 506 32 297 19 478 27 399
1987 -2.1813594908204896 1.1502110205188811 4.7830387132218712 60 135 115 0.28087873274111796 14 506 24 529 46 427 19 422
2560 -2.02564292684507 1.5948645085489364 3.9748665369746048 126 112 101 1.2907207427057172 16 986 45 669 27 910 13 676
1989 -2.023664342411406 1.2088609192002557 4.519920494047045 158 217 210 0.061027275476136331 16 656 24 542
2618 -1.8296960599825807 0.92901317477978285 4.6780550980027931 0 0 0 0.72726449657539671 14 619 16 855 24 620 27 789 19 525
1990 -2.2839122228834108 1.3949982999583221 4.7749332325980145 204 249 234 0.57028810533769003 14 628 24 544
2135 -2.3429532462575597 -1.4052888924363847 5.9508814330694833 0 0 0 0.64832429826606752 14 779 24 770
1994 -1.7557984008079077 1.3695514947744387 4.4949913709891387 5 102 100 1.9254083460001155 14 519 24 555 46 437 27 598
1995 -2.3001747800887791 1.5536014664304842 4.0579828544642895 114 111 102 1.8964330034990695 4 555 14 543 24 565 27 621
2345 -1.9234035669625187 -0.62184831477155966 5.9978889604597816 219 226 229 1.3922114051850363 45 12 20 16 16 19
2648 -1.9892848287852645 -0.58623357497444384 5.9448386246052358 17 23 26 1.3503064387821286 16 409 14 273 24 292 46 229 19 241 27 16 13 217 44 356 34 344 6 340 23 426 25 181
1997 -2.2896434052209838 -1.326223695103145 6.2011256972183117 124 170 190 1.4603521517158295 24 575 46 456 19 501
2642 -1.7830089278300878 1.4309867189770449 4.2116960493378572 82 77 63 0.7398503050263896 16 998 42 1037 13 706
1999 -2.3146586528334021 -1.2032304695042835 5.8507925950173956 0 46 61 1.702622296920407 14 655 24 579 19 502 27 643
2003 -1.4394225430635097 0.24223337821939916 5.6017101235989841 43 156 162 0.49755646219460203 14 583 24 596 27 665
2005 -2.1155534410412211 0.71360791888940167 4.8437390964110216 214 248 241 0.23902429163866293 14 606 24 611 35 677
2570 -1.7927571139914069 0.62726307363168887 4.863584358002095 123 161 154 1.4032976763482083 6 994 39 743 11 671 38 711 26 700 14 758 42 972 32 622 27 881 16 979 24 754 33 474 13 660
2006 -1.8701922715425972 1.0975269319917513 4.6592120753134436 43 133 131 0.9998240950991224 14 624 24 622 33 359 32 563 46 504 27 697 16 858
2215 -2.3095584638290689 -1.2500165545593211 5.9734443712167211 10 10 13 1.6409163389753565 32 668 46 640
2011 -2.0397138110630206 -0.50508000062830694 5.9195452115322622 148 201 190 1.3017697423499408 16 719 32 529 45 432 33 375
2361 -2.2807123538228611 -0.33618025994918727 5.6748571067250415 44 62 58 1.1994885955686223 45 239 20 291
2012 -2.0829704166016696 -0.36518698113193543 5.954829224896363 1 55 58 0.49487342943008228 14 714 24 647 27 751
2354 -1.7506801271705279 1.5731267515339775 4.0701908376680009 69 63 49 1.1045275991440722 42 268 20 263 16 283
2013 -2.1395172454698432 -0.35675647473153782 5.9344590651898521 147 189 211 1.0465367493090794 14 664 24 648 32 586 33 464 27 817
2014 -1.808330286543929 -0.13094507561201979 5.9498719243249125 0 40 48 1.191833525226228 14 668 24 654 46 523 27 757
2079 -2.2918072051255001 -1.3033012462833202 6.174812019507903 26 43 73 2.0839398490904268 24 283 32 229 19 2
2015 -1.3473969587606374 0.15348719660580903 5.5719640591219042 170 226 220 1.4624645665571641 14 675 16 742 24 664 27 770 13 380
2018 -1.6569643376898453 0.63211156154511572 4.9484071190122823 64 158 166 0.38779427003082906 14 687 24 673 19 521
2019 -1.9340305137941003 0.61989627388048252 4.8887114330224115 88 176 177 0.66798121382778863 16 910 24 674 19 522 27 785
2021 -2.2485135599718502 1.2683553340728544 4.8630589796260821 181 230 195 0.8903401698517146 14 693 24 679 27 698
2022 -2.0378381907869434 1.3217476765079201 4.40745361858405 166 224 205 0.65002951237471773 14 699 24 682 32 566 33 406 46 581 19 528 27 801
2167 -1.7574159278707631 0.93293722067679985 4.7450944470197349 40 118 144 0.4322357451340057 32 609 49 741 33 454
2027 -2.0440832964097502 -0.55176729184846318 5.9442890854876538 0 9 24 1.6976086041064313 14 742 24 702 27 744
2029 -1.373244154747026 0.14385255206964695 5.6802604889903909 28 107 124 0.79296112854334 14 722 24 716 27 824
2032 -1.7136962199742973 0.80345325452894034 4.7830238703952581 73 158 155 0.81340612722746641 14 688 24 728 46 542 27 786
2033 -1.877109492041152 1.0086046309376673 4.6910351818333487 50 115 113 0.45069865454615377 14 731 24 732 27 843
2035 -2.3830694261702217 -0.87219481548557465 5.7284711471074727 154 199 201 1.2181216323030353 16 938 24 745
2037 -1.9308670507390377 1.076582530947634 4.6261120856019309 0 42 44 0.97146529505291812 14 766 24 759 46 611 27 890
2602 -1.4723049601765372 0.20303789105687661 5.5459475917675345 62 98 98 2.0331934711460566 16 743 42 748 45 452 13 381
2038 -1.9716634091873921 1.3520031980014378 4.4362104658121924 27 91 87 1.1805964164685683 14 771 24 761 32 637 33 485 19 593 27 897
2119 -2.4068395357124892 1.4868309376047673 4.1742436166986865 157 131 109 1.3806876845882574 14 706 32 517 33 367
2039 -2.2453519079163478 -0.46677435956818319 5.9240914894750292 0 52 64 1.3955235426080796 14 798 24 774
2041 -1.8320186770153348 1.3626217001871899 4.5655747919061138 6 76 74 1.2266237388133225 14 767 24 786 27 893
2042 -2.3127723905488029 -1.0783035672644783 5.7461927155116603 0 56 67 1.0726849752141789 14 805 24 792 19 620
2043 -2.3298135316814346 -0.96342676957672946 6.073464086860799 0 0 0 0.20834338493868126 14 806 42 1045
2632 -1.4223237841688772 1.5732373003705191 4.0251918243433273 99 91 72 1.040114552559539 42 944 45 609 13 598
2045 -1.6390710100346704 1.1601318272170011 4.7733006981943493 49 115 131 1.3829340747584851 14 815 24 809 19 640
2046 -1.7307482505745349 1.395781176458974 4.3205498649429988 92 177 170 1.7500588976455849 14 818 24 811 46 650 27 950
2111 -1.98381914615963 -0.11544649615055175 5.4315330522859577 17 52 64 1.6525394329989116 14 574 32 476 27 764 24 661
2051 -1.8810491922968249 1.4598836156985762 4.4246565152121926 96 177 170 1.7090191012282894 14 828 24 818 46 649 19 647
2052 -1.8810491922968249 1.4598836156985762 4.4246565152121926 96 177 170 1.7090191012282894 14 827 24 819 46 648 19 646
2053 -1.5934035015196841 0.25618809340044624 5.3930103392564677 0 103 105 1.2705016051433866 14 836 24 825
2057 -2.0753822111806102 0.58588003298094904 4.9419520404063686 171 218 205 0.52511448688192308 14 113 24 140 27 138
2058 -2.2621954088667868 -0.24413372022913149 5.5954835612082743 22 94 98 3.214729715947334 16 1026 24 815
2059 -1.9355305174779496 0.39141769389050651 5.0141557446330527 148 191 180 1.240766586347168 42 860 44 873 23 645 4 599 14 681 39 545 38 595 41 692 26 540 12 668 40 560
2061 -1.9225747805260589 -0.55187951587016459 5.9169139810599214 29 41 74 1.5689566318887298 14 16 24 24 39 29 32 23 44 20 33 12 40 363 15 653
2062 -1.9835921110666126 -0.55270212749500769 5.9113837855863007 60 91 108 1.0296429122192026 14 18 38 39 32 25 46 27 15 422 27 23
2063 -2.3602720253124021 -0.32706882845255952 5.8388190717039921 6 107 86 0.14128665756657169 14 291 32 35
2064 -2.2081567357325915 -0.3240637211875686 5.6660461179664798 8 29 57 1.3690511082516315 16 50 32 41 33 29 19 58 27 44 13 33
2065 -2.0537141547662916 -0.08441441506458594 5.4518025132340853 168 230 215 0.7830308963658883 14 308 32 56 27 69
2066 -2.1759893718947172 0.0029133632582404234 5.4690873846436618 68 173 175 0.48508798904497163 24 480 32 61 33 38 27 356
2067 -1.7498379523823233 0.065449803591663719 5.3583287528606727 144 204 204 0.58053331790835072 14 75 32 66 33 41 27 82
2068 -2.0841262594068359 0.40675596668053132 5.029880913068431 133 211 209 0.87969122472043149 14 341 32 94 46 117 27 124
2069 -2.128489482992562 0.42885413924581806 5.0651080075517925 152 220 218 0.76253962671547293 49 386 32 95 46 285 47 237 27 126
2070 -2.1459599416449238 0.43346184790945863 5.0750083383810729 119 184 180 0.77640818006848478 14 107 32 97 46 116 47 98 27 125
2073 -2.2614803121376763 0.99399753734268204 4.9146457935976455 72 148 147 1.5679203201118668 24 371 32 138 46 303
2074 -2.0874580503953362 0.95702514615539802 4.7393861823238685 110 174 176 1.6155933585410245 16 492 32 142 33 100 13 91 19 313
2075 -1.9526924493361602 1.0113532738281521 4.6290023584552813 87 172 176 0.5581104357682225 49 429 32 151 33 104
2077 -2.0025325932802316 1.2435352997295444 4.5304767196417624 100 160 172 0.37001567515755313 49 443 32 165 33 118
2078 -1.6372495559155911 1.382520988464961 4.2076572318680432 147 211 204 2.0232042816157585 14 405 32 192 33 132
2081 -1.9540966235219757 -0.40452414386392632 5.8056918173509597 130 193 186 0.7974118563014394 14 286 32 250 33 19 19 376 27 341
2083 -1.3944928782816555 0.16129287799121289 5.5999252328548295 113 176 182 1.4458927094552365 14 460 32 270 33 185 19 388 27 361
2085 -1.3861119304959155 0.26039149483003199 5.415637389661506 111 178 164 0.58277871829777383 16 456 32 277 33 190
2086 -1.8863654132065022 0.19183627412479998 5.1926298814405953 134 219 217 0.31936534117928067 49 543 32 279 33 191 27 376
2091 -2.0310433566132384 1.1175995085712371 4.5425932574690018 20 105 97 1.6063225946424184 39 485 32 325 33 220 14 512
2092 -1.7138504224496867 1.5206726670389707 4.101163862552788 197 173 139 1.7286432211412308 14 534 32 343 27 472
2097 -1.9843146710999005 -0.43913538460233692 5.8507410099003145 17 93 98 0.81550835130928012 38 572 39 512 49 608 32 380 33 259 12 655
2101 -2.0291944807741591 0.39814836131714304 5.0346349149306002 146 217 215 1.1759360210006189 14 598 24 499 32 412 33 289 40 434 27 567
2102 -1.92733356356879 0.4464870895768735 4.9816496584594629 138 206 206 0.62958511892387126 26 307 32 415 33 293 40 514 27 392
2106 -2.1928739287399908 1.5287915020315912 4.0970976499225111 185 172 132 0.97140252342842681 4 429 14 537 32 443
2108 -2.2403120582736773 -0.13858519505057795 5.6189676893139184 168 233 228 1.8658340337571981 14 670 49 689 32 472 16 732 33 335 27 763
2112 -1.98381914615963 -0.11544649615055175 5.4315330522859577 17 52 64 1.6525394329989116 14 575 32 477 27 765 24 660
2115 -1.7102249614554381 0.7320023933822507 4.8238729718423592 120 194 181 1.1893739062587407 16 753 32 492 33 350 27 683
2116 -1.9421606486477081 0.80698879182433825 4.7157508646960613 115 193 195 1.004301747676972 14 689 32 499 27 687
2117 -2.0153439062629523 1.3561705501202883 4.4081547166003707 8 101 120 0.70209355946894669 24 556 26 568 32 506 33 360 27 707
2118 -1.9948325954740802 1.309288028732049 4.3388001286854285 8 101 120 1.5297843498020403 16 534 42 504 32 507 33 361
2121 -2.1858080600850696 -0.51115365475458818 5.9349552299728607 94 151 204 1.0612640647022045 24 584 32 528 46 465 19 506
2122 -2.041104493531301 -0.14042010587409801 5.5058959542449264 72 137 149 0.24819599543613124 14 671 32 535 33 379
2123 -1.9158191223949415 0.48430254069887768 4.9519615339258483 131 206 198 1.0104324574486632 49 728 32 546 33 389 46 540 27 782
2126 -1.9012477036994078 -0.15084334986555967 5.871710980850029 15 33 57 0.22237576229164366 24 655 32 593 33 431
2128 -1.9397313156514635 0.051073888746276781 5.3519127814480454 147 233 233 1.0489030800111947 14 751 32 618 33 468 27 922
2129 -1.8571766449643881 0.81930941818321157 4.6972804765001186 104 170 169 1.62042357373846 49 790 32 628 33 478 39 716 27 887
2130 -2.0841546458486975 1.2977253777488489 4.4536761537897798 139 193 180 1.0614758211865891 24 760 26 689 32 633 33 482
2131 -2.0772142541763561 1.2803797092717466 4.4274892426063648 139 193 180 1.0420816385851348 14 770 32 634 33 483 27 895
2132 -1.7842063802588515 1.4053933532610059 4.1628844325636605 54 52 74 1.9913776466851292 24 766 32 639 33 487
2133 -1.6147558016333867 1.4455042738185397 4.2142876897534309 54 48 59 0.86787747418574579 39 776 32 640 33 489
2139 -1.9080473635675306 1.0763690652477553 4.5835778090999586 17 81 80 1.8097056209672839 49 838 32 679 33 529
2140 -1.9235449357187895 -0.43922916379176546 5.8549292908099693 24 46 43 1.3978676126908907 14 439 24 462 16 721 42 729 44 723 34 722 6 711 23 629 39 510 11 513 41 589 36 547 38 570 28 582 26 581 25 385 29 589 32 463 33 327 46 373 40 523 15 1002 1 465 7 206 27 527 13 360
2142 -2.0363331629133001 0.43140714453396034 5.0180872068935374 163 208 199 1.1166846082634192 49 643 24 501 32 414 45 461 42 631 39 452 33 292 35 672 20 655 40 324 27 570
2143 -1.9322241978597041 0.78737925194143776 4.7557685342011782 109 145 130 1.000625482895273 34 438 6 611 39 555 45 466 42 769 38 604 14 493 32 422 24 515 49 650 33 298 35 684 12 675 20 662 27 575
2144 -1.6801361844803973 0.88818826641240378 4.8230424401230874 8 16 19 1.6691957077712112 6 962 23 800 22 1291 34 928 44 951 6 904 11 543 28 704 25 551 49 739 32 427 24 365 39 671 36 578 33 301 19 306 17 626 27 690 13 580
2145 -1.8813495817442503 0.29535797542843634 5.1193247768784973 99 128 119 1.8789996976789367 14 594 42 857 45 541 44 869 34 747 41 690 32 483 16 840 26 437 33 342 27 563 33 285 13 482
2148 -1.9127370112647435 -0.37485727999283719 5.8221894842684465 76 117 115 0.99020336006553844 29 462 14 288 24 465 46 46 32 253 4 577 17 494 27 529
2149 -2.0202085732883877 -0.57625241884230394 5.9488111878432388 15 23 42 0.94788287706255969 14 12 32 21 33 8 24 20 46 233 16 411 13 17
2150 -2.0812513013570282 -0.12469520583874016 5.4775032949734612 130 200 201 0.87124825705726505 14 59 33 34 46 72 27 63
2152 -2.1147091635409785 1.0255161530732375 4.7095069446635565 114 173 179 2.0087245297290726 16 501 33 103 13 96 49 430
2154 -2.2925590929664001 -1.0158279390600446 5.9193898161795806 0 0 0 1.4310602055033386 32 236 49 516
2155 -1.8840335255747407 0.18721328340854609 5.1825552343117662 136 223 221 0.56312559248121286 14 328 33 192 27 375
2156 -2.0464353264026776 0.85805520134663593 4.7621385285480917 121 188 196 0.70421030346238611 14 498 39 466 33 214
2157 -1.8984706792905932 1.4551048007112528 4.1403818681953464 126 117 98 0.71952135360730074 24 420 33 232 27 465
2158 -2.2326441816672138 -0.23925521060254387 5.623430018556058 47 104 118 1.2828889232424798 32 390 38 422 39 288 33 269
2159 -1.8451312046187869 0.27110112268103892 5.1232097037729343 9 52 89 1.2686000070465866 14 593 32 404 33 282 1 438 27 561
2166 -1.7888672793099059 0.34821767379738938 5.0846609542105385 73 156 170 1.4941172271925587 26 641 33 441 27 776 16 842
2168 -2.123078700239406 -0.13193421404919331 5.5528162537003549 173 233 230 0.40497546674168294 14 785 32 616 33 465 27 918
2169 -1.9196819665611138 1.2568567189695139 4.4797793563539026 14 63 67 2.2388015365639737 32 681 49 839 33 531
2170 -2.1936414817397889 1.4986962077399815 4.1368227776680095 63 56 48 1.5005799419663828 49 713 33 369 6 776 34 792 4 547 29 386 12 709 20 683 27 717
2171 -2.3342787040994861 -1.3005361161958999 6.1675885645305035 0 0 0 3.5204961964349017 24 446 32 369
2172 -1.4527572713670145 0.19346301842587221 5.6267618752791222 60 160 156 2.0076224450397691 14 674 32 480 33 339
2173 -2.2611424839604881 -1.2300840090468486 6.0841451111428402 23 27 29 2.1025459708223391 24 697 32 583 19 538
2174 -1.9881272134104524 -0.2136104081833303 5.9594411686350259 23 66 83 3.0115433313596318 24 707 33 426
2175 -2.3204125071224473 -0.88162217935373222 5.9728936810997642 16 36 45 0.67035782429566537 32 659 27 936
2176 -2.3204125071224473 -0.88162217935373222 5.9728936810997642 16 36 45 0.67035782429566537 32 660 27 937
2177 -1.5529064421513545 0.84758764722856317 10.927801987952025 105 125 114 0.84399378298203354 49 152 46 21
2178 -2.3169796692829134 0.29478037975676424 5.33137651517705 116 149 127 1.1950101831387143 16 458 46 105 19 284 24 341
2179 -1.9683057238292101 0.24986722035961431 5.1020733403959149 164 195 186 0.63500978917018502 24 117 32 83 46 112 27 115
2180 -2.155433745297298 0.92960500638929833 4.8485791293292353 121 170 148 1.2294743446729479 14 135 49 411 46 150 35 402 27 166
2181 -1.7618861004743174 0.86017399196323341 4.7493086494080412 5 40 41 0.81192602407769754 24 171 46 151 19 308 27 409
2183 -2.0936504686225792 0.92375529152055069 4.7430849509085773 140 163 143 0.82210168743973921 24 179 46 155 35 121 47 128
2184 -1.9042345816155948 1.3508152698816254 4.4611539567849263 52 89 95 0.90384795870884016 24 220 46 191 19 346 27 207
2185 -1.8588542435016826 1.372852199636331 4.2334635901187099 107 159 142 1.3868414119343491 24 233 33 131 46 208
2186 -2.151569082978583 -0.4697061556900321 5.9602026170455948 21 55 54 0.86221828584825799 24 460 46 237 19 371
2188 -1.7563930092637681 0.023000692129106694 5.4457956185905472 141 184 184 0.46180637949784237 14 315 46 264 27 358
2190 -1.7192272574813714 0.23115855265830931 5.2903511670119627 67 114 125 0.39197362225808291 24 340 46 276 19 474
2191 -2.1806670713139229 1.0426257417474238 4.8399393709217282 122 154 129 1.233881226775382 49 431 46 307 35 551 47 271 27 173 13 97
2192 -1.8529217389782526 1.1162210256998162 4.640372228850941 26 66 65 0.4369243397050338 14 509 46 315 13 277
2193 -2.2823138065908104 1.4074768659137855 4.8855299955614138 175 204 186 1.412597812288745 14 167 46 324 19 175 27 197
2194 -2.283741581444477 1.3931067150184815 4.8677840770373466 175 204 186 1.2003423603252681 14 166 46 325 19 174
2195 -2.1711145394097513 1.2788036286597293 4.6162200535820954 159 187 171 0.9876232719801622 24 208 46 331 19 179
2196 -2.0483721968279536 -0.0068653935172392619 5.3670046478497362 179 209 197 0.96113362726645735 14 457 46 384 47 222
2197 -1.2953252483928372 0.12924058379275835 5.556200267085484 26 49 55 1.1555182794752321 24 482 46 388
2199 -2.2518271116652442 1.3846044561412139 4.8051538159388505 174 207 188 1.397977734655891 14 388 46 433 19 338
2202 -1.7856912326205225 -0.47095225872589735 6.0690523786120307 113 150 179 1.8780147476664997 14 435 46 469 13 464
2204 -2.2301152394203831 1.1261655744280938 4.8528708781383934 123 158 134 1.7403066457750047 14 621 46 546 35 777 12 757 20 714 47 417
2205 -2.1483395889660128 1.1624621225654543 4.6708314911467612 144 172 152 0.78732446773811482 14 626 46 548 19 490 24 623 27 591
2206 -2.1377271759840939 -0.43789538542710243 5.9014568855455396 113 140 136 0.73275369283817615 14 744 46 556
2207 -2.3418981100450975 -1.383522139484278 6.1431161017629092 39 26 15 2.036112171691459 32 643 46 588 27 860
2208 -2.0881187195989583 -0.5072367681022949 5.9651767110963094 21 34 40 1.9378100612514413 14 743 46 591 27 814
2209 -2.172846220200491 0.70016183557185374 4.892782750409415 150 174 161 1.1931665110108876 24 756 46 603 19 586
2210 -2.0264963076970619 0.68717308923473863 4.8445096228785474 49 92 87 1.4021715811103224 24 783 46 605 47 451
2211 -2.0887770335284781 1.0844167402039735 4.6063185615357556 184 208 195 1.7725498786598297 14 733 46 612 47 494
2212 -1.8690631912622164 -0.541877667051754 5.9953006437245486 20 34 43 1.3192521277373761 14 783 24 747 46 626 19 601
2213 -1.9382557275040009 0.051921903699889804 5.2805741258746535 148 189 181 2.3043853063238169 49 783 46 631
2217 -1.8987000916608932 -0.62351387042253859 5.9780852219639167 116 147 175 1.0824366800683696 14 712 24 699 46 553 19 539 27 812
2219 -1.7934046149869232 0.55232783768304972 4.908471051494196 112 142 138 1.4911253115072605 16 908 24 724 34 835 23 647 22 888 4 604 11 471 26 594 39 614 38 660 45 544 36 504 6 817 28 611 25 481 21 400 14 684 32 604 33 445 40 616 7 69 27 837 13 575
2223 -2.205592826822397 -0.25979728481463538 5.6568705759279601 22 49 46 1.2172111172509454 16 57 19 63 49 63
2224 -2.1773383172435037 0.22019332009266471 5.2240135415788362 109 142 133 1.4676719384258501 24 112 19 111 35 72
2225 -1.6646359169807305 0.95447122728921097 4.6990060016416813 34 59 56 0.1862793841659523 24 181 19 154
2226 -2.1269937482057761 0.99835128241559856 4.7269546798449138 217 233 219 0.53186621215159036 14 146 19 156 20 500
2227 -1.7629823824476918 1.1223802247348735 4.6524531015596704 0 0 0 0.33919988690609137 14 157 16 188
2228 -2.2533826133648636 1.3124434441868189 4.7939271631297808 140 182 160 1.848107076010499 46 322 19 171 47 286
2229 -1.9927191054647544 1.3472351318605347 4.4639079622968207 15 40 39 0.68400691697534388 24 219 19 190 27 446
2230 -2.2704630251155282 0.33168501542509732 5.2972145355203928 40 78 55 1.6380303415679931 24 495 19 286 27 118 46 401
2231 -2.0089696907042187 0.39840191817335968 4.9937651928503222 87 133 122 0.56321300661501017 24 353 19 289 13 257
2232 -2.0071165462269116 0.40795047339887158 5.0131360556950417 87 133 122 0.62325827832317993 16 107 24 352 19 290
2233 -1.6472088669084022 1.3062859700219125 4.2177917791970314 111 143 135 0.16740885597173089 24 408 19 352
2234 -2.2647938729206918 1.2525748133368666 4.8540756560992975 232 249 239 0.7755500041190001 46 503 19 426 47 461
2235 -1.9793667971424056 1.0792116259429378 4.5651342115911806 75 103 105 0.93748244416873805 16 653 19 429 49 661
2236 -2.1340358574454963 1.1858285604910324 4.6358712965501656 234 246 239 0.64852621082240069 24 536 19 431 27 432
2238 -2.1364565242412139 1.2836710254665726 4.47395941352588 190 202 198 1.3132194048260515 24 627 19 493 27 596 16 659 49 665
2239 -2.2470605153842262 1.0324098489415734 4.8456222886523097 82 114 94 2.258459403432453 24 731 19 524 13 582
2240 -2.2573649318975022 1.1744944714078669 4.8627199831811012 149 183 158 0.84780767264852874 46 576 19 562 47 511
2242 -2.1534695518122744 0.88676775409429642 4.8703817908940108 75 103 91 0.52475959330792188 16 1011 19 630
2247 -1.9600121298135542 -0.41769069240379031 6.6215779203984875 0 0 0 0.28156044809157998 32 374 46 463
2248 -2.4588408437580549 -1.1466557218546427 5.9874767604166701 82 148 226 0.84370630668277635 14 781 27 934
2249 -2.0276188763762475 -0.32528250967034361 5.7211422957182894 18 41 35 0.92173086165941753 16 1039 19 654
2255 -2.2114211189533193 0.7804698579630085 4.8169503983168589 0 0 0 1.3432771943009918 16 143 42 143
2256 -2.2444719814881902 0.78514865674858758 4.9445687825654909 92 145 142 0.77093837779478869 46 293 35 115 12 96 20 340 47 351
2258 -2.2105354978559433 0.88444863494234938 4.865935948590641 76 133 126 0.53941004070023491 42 163 35 119 12 110 39 159 20 146
2260 -2.279176810945208 1.3036745074146547 4.8197678442125937 38 105 97 0.87024071306325423 46 168 35 149 12 154
2263 -2.2535471594549481 1.5079236966425782 4.135626777317194 72 75 62 0.50596241256644447 42 530 35 199 12 439
2264 -2.0608589239064039 1.5975698407865762 3.9185650401602774 86 86 68 1.0355084954210771 42 546 35 241 12 462 20 266
2265 -2.0393269234581592 1.633795527004517 3.8722881516052423 98 98 88 0.025545008486071497 34 304 35 254
2271 -2.2221355766181827 0.089989189864658745 5.3191225652094625 62 117 112 1.820239960190156 45 62 12 324 20 313 35 344
2272 -2.1607026929256485 0.18689965050529206 5.2275434603175626 47 102 97 1.1043938192380167 45 73 35 354 12 64 14 89 20 318 27 97
2274 -2.0198813370190258 0.84238135755216725 4.7459613183456684 82 134 132 0.92934886180407117 42 154 35 395 12 365
2276 -2.4325300105360377 1.6756611266552628 3.8792022567150166 106 107 99 0.65768545216154939 16 577 27 315
2277 -2.3940709967654725 1.660967553861205 3.7975806625178108 0 0 0 0.34323738451254343 16 578 45 218
2279 -1.8440376940654986 0.86433190012798178 4.713562475801484 34 73 67 1.072196704621716 45 549 35 542 20 576
2280 -2.1546624795393683 1.0311537509988036 4.842519546561757 74 127 125 0.76611882880545101 14 144 35 549
2281 -2.1761341430120154 1.2238071966416511 4.6691259282543651 55 115 107 0.66949297887177428 14 165 12 145 27 193
2290 -2.2296317573841566 1.4313734930519342 4.1734668336830802 99 89 73 1.3415445302086464 16 229 49 246 35 182 34 517 6 500
2292 -1.6067641920887081 1.1357492011365744 5.1999878060710207 60 124 115 1.3370605098470834 49 572 35 423
2295 -1.3604812356951863 0.15290351140088165 5.548833156824033 86 143 144 0.819554430326634 45 450 35 364
2297 -2.3076832336426776 -0.67946601368645532 5.8318590328958964 154 185 181 1.9858367658751312 14 10 12 16 27 12
2298 -2.3111316893726155 -0.2997306878298191 5.6563588079157965 76 118 117 1.9780388961145761 38 267 12 32 20 35 45 35 39 57
2300 -1.9281508339948796 0.35734656307215601 5.0403990153696929 166 211 208 1.141495282014839 14 105 12 77
2301 -1.6899205408034941 0.74962081828573135 4.8113888778771985 174 209 200 2.2320261961403873 38 352 42 431 12 102
2303 -1.9164508859704514 1.0393053586157381 4.6332491945222607 31 58 54 1.9187527833568909 39 569 12 129
2304 -2.1869316838396777 1.1642334215850374 4.7684895017748499 94 139 130 0.22594927020907918 35 136 12 137 47 133
2313 -2.1638051855730565 0.43618736000819136 5.0252519867885832 175 214 208 0.8143112919001132 35 368 12 341
2314 -2.1397249666370839 0.4506442787653096 5.049562251093259 209 248 244 0.66705227634788811 35 372 12 346 20 475
2315 -2.2118068103036026 0.78781668646988656 4.9024447972835787 188 228 220 0.42889787796391499 42 145 12 356 20 135
2316 -2.0926612002282505 0.87128058334422032 4.8127682070341162 114 161 151 0.2333232266720221 35 398 12 367 20 349
2317 -1.7285152687357155 0.82450649136495191 4.8132127656455159 22 37 39 0.35437831826526556 35 120 12 373 20 351
2318 -2.2535471594549481 1.5079236966425782 4.135626777317194 146 141 124 0.50596241256644447 35 200 42 531 12 438
2321 -2.3760882242551089 1.6864359734474954 3.8922255773281584 148 147 127 0.029733811680013114 35 465 12 471
2325 -2.3698936249213296 1.3687851044247239 4.3158760378596792 162 202 194 0.51350626743142658 35 580 12 603 20 605
2326 -2.0296869280625813 1.5483905687717672 4.0790182253846217 52 49 47 1.0221273804344033 16 866 12 615 13 509
2329 -1.9941330628110687 -0.39348879828354821 5.8402395773946099 202 239 232 1.3946078458351061 16 829 12 729 42 841 45 523 20 631
2331 -1.9268104263550661 1.0529296845437239 4.6332074872446025 42 73 68 1.0748451576564035 42 983 45 596 12 820
2333 -2.3695602190274574 -0.46327087738200601 5.8578894338390253 53 92 135 0.48339786162291809 39 691 12 872
2334 -2.0850043855833031 0.48174112702571392 5.0309654396817161 0 0 0 1.5690015600590108 38 709 42 1006 45 653
2337 -2.1302103930440146 0.87862543670474436 4.8446925401204943 79 121 110 1.1998888408540278 16 761 14 613 12 753 39 624 49 701 46 495 27 577
2640 -1.5827838771567391 0.15520290605902035 5.7009444674249501 134 162 201 2.3528000054581448 42 1046 45 675 13 695
2341 -1.7511759344462792 0.091818067693871866 5.3475081807514417 16 40 40 1.3633752705131914 49 629 24 484 32 482 33 341 46 389 19 391 36 566 28 596 25 470 21 299 44 861 34 733 6 735 39 530 16 740 42 851 41 682 38 632 29 490 4 477 26 528 17 512 2 356 40 491 1 485 27 553 13 375
2342 -1.6865340979681385 1.2540799537945417 4.9404623855302416 47 72 69 1.0898990322665332 36 588 28 633 25 433 29 524 26 467 17 630
2348 -1.9348718465382937 0.49629014145000844 4.9379288725089241 68 97 88 0.26875359264778742 35 94 20 114
2349 -2.0712677954299203 0.54494209257190307 4.9586347216144029 66 92 81 0.54996447875954779 12 352 35 96 20 117
2652 -2.2265742474622505 1.4709945142004313 4.159924859323004 138 127 106 1.3715295652793993 4 677 14 707 24 691 33 411 27 805 39 687 49 776 12 825 35 834 42 943 13 594 34 865 6 843
2350 -2.1430820710175302 0.73553387430101924 4.8759390994328937 52 75 59 0.40388517226433024 12 95 35 110 20 133
2356 -2.4160743019109958 -1.2321309553843378 6.117281432115858 6 9 7 1.0138274388158131 45 4 20 278
2363 -2.2656949760484979 -0.14510634970447073 5.3977601818917771 38 55 49 3.1038696050428078 35 40 20 304
2364 -2.3377773613445307 0.14494341423976895 5.3960727872056644 55 79 73 2.2213534632268184 35 64 20 316
2365 -1.9023846454392592 0.38255904242175715 5.034440042654456 95 133 122 0.60332991529151325 35 87 20 327
2366 -2.2539569483378807 0.82219751728175094 4.9279734743906385 42 60 50 1.0689256880339411 35 393 20 343 47 252
2368 -2.4939759567929531 1.6246853390586156 3.8685435926939085 51 51 40 1.4255937461905055 35 231 42 557 20 420 13 139 16 566
2369 -2.4635408078076932 1.6252051270587151 3.8660203059748599 38 37 32 1.702475203944223 16 567 35 234 20 421 13 141
2370 -1.9166536821577829 -0.58528961478558117 5.9687738898658012 13 15 11 0.96806529741118086 45 350 20 439 13 218
2371 -2.0170870649319772 0.38334989066440606 5.0269857986049429 83 121 108 0.19498213373733353 42 627 20 471
2372 -2.2307570648448758 1.209832807282174 4.8061872675178634 85 121 109 1.4968547165224806 35 563 20 513
2373 -2.3974760220373179 -0.32935278480167429 5.8165594787641774 49 73 60 0.72207327864317894 45 436 20 547
2374 -1.3797557938748271 0.24262244819924028 5.3893665174436265 33 44 36 1.8768942164556486 35 525 20 562
2381 -1.9498142756167658 -0.59241338462247373 5.9914354534790562 12 16 11 1.3953673532307485 16 940 42 962 20 734 13 616
2382 -2.4181347669922246 1.4202929692224615 4.4259653949171707 95 127 112 1.3887336477631915 35 867 20 757
2383 -2.4168211468283523 -0.93032597735166611 6.0103138154028644 221 221 223 2.0310155308094751 42 1000 45 615 20 761
2388 -2.1775840819329377 0.53827792722465195 5.0048774623135275 68 95 86 1.0593304794247713 35 900 45 655 20 788
2597 -1.8037132495553041 0.099715856991662105 5.2875227399316227 80 109 104 0.63550319989506399 16 447 42 62 13 245
2389 -2.4000430329622149 -0.48412230123289246 5.850450167280778 222 223 225 1.5467031029151399 45 688 20 799
2392 -2.4547202222828295 -1.4126652803113118 6.3142858956136205 219 221 220 3.1011402305219198 45 223 20 277
2601 -2.1629477036881921 -0.34799253526181884 5.8033488460085323 52 62 66 0.96936945038261801 16 722 42 595 13 366 45 363
2393 -2.3668224065926182 -1.2194875597269725 6.0944197496098429 30 48 42 3.5147463559416079 42 959 20 730
2394 -2.1521600618693744 -0.55526279512918542 5.8965218298399291 217 220 221 2.4782963486029277 42 1028 20 763
2398 -1.7273016014320584 0.028130772132639904 5.5034605042085731 124 154 147 0.36768647975929958 26 59 40 117 1 228
2399 -1.7273016014320584 0.028130772132639904 5.5034605042085731 124 154 147 0.36768647975929958 26 60 40 118 1 229
2402 -2.2079698395440936 -0.25841004233302828 5.6803966155090366 181 210 190 1.6145327977476776 38 79 40 259 1 63
2403 -1.8803011274210137 -0.07939136644970167 5.5156322866430889 19 40 40 1.8646285920036014 38 95 40 275 15 489
2404 -1.6858564361399593 0.51092125403730237 4.9880657385333027 191 222 207 0.69497331188996725 32 102 40 327 27 133 46 124
2405 -1.8508970889305287 0.32271745908504179 5.0840860595615593 170 201 186 0.97071389110264306 14 477 40 423 27 389
2406 -1.8841393650446383 0.35794156740028749 5.0083880809939876 153 183 171 0.14779124337361119 36 278 1 272
2409 -1.9873883131307581 -0.13418296074391745 5.6079831421032083 159 185 177 1.3072651125522421 26 411 40 540 1 410
2410 -1.8259014767267281 0.18070610369311543 5.2032257098774917 200 231 216 1.7567673116768359 14 589 38 637 39 534 40 553 15 962
2412 -1.7781265656711225 0.30866248510209493 5.1472830432629362 151 184 175 0.99347475883991587 32 542 33 385 40 612
2413 -2.1834857767472067 -0.37995125229130317 5.768089251206951 23 40 44 1.3901765106548443 38 698 39 737 40 641
2414 -1.7940333617917554 0.21141037314378044 5.2061892870352047 113 149 144 0.94171528182341979 6 78 39 90 38 303 40 416 11 63 26 281 36 74 14 92 1 260
2415 -1.9126894119567812 -0.37223357007523766 5.8196938962343774 80 105 99 1.4817083154289867 4 576 26 394 40 462 14 287 29 461 32 252 33 174 1 395 27 530 46 47
2416 -2.074742409183203 -0.1044412251043834 5.472898057958016 87 140 129 1.9821019548741847 4 293 26 262 40 482 14 573 24 593 32 475 33 337 46 529 27 657
2417 -1.7550064269149468 0.061884866029782409 5.3904597474775855 138 189 185 1.1426004317664609 14 677 32 598 33 438 40 610 26 636 29 607 17 610 2 350 1 552 7 347 27 768
2418 -1.7472180742625365 0.051492665549870323 5.4160053656601965 54 74 72 0.64753186453483025 40 125 1 106
2419 -1.7111256424044126 0.5432946675043856 5.2710029829839957 30 63 69 1.828643288363837 11 410 40 430
2420 -2.1922817309377902 -0.38136275090996236 5.7189014551121442 10 18 24 2.3790141982320754 39 596 40 576 38 619
2421 -2.3157528135815988 -1.0975250832786587 6.0104174640468413 73 93 92 1.4258202715533463 29 274 40 519 36 455 28 466 25 290 21 176 43 383 26 386 7 128
2423 -2.1942384248041726 -0.42037796207185735 5.7372341992190519 52 82 90 0.70649205375665014 26 34 1 190
2426 -2.2144045855608234 -0.34337664162116421 5.7014130587258629 20 44 43 1.4646677271950783 4 36 1 309 7 33 21 34
