# 3D point list with one line of data per point:
#   POINT3D_ID, X, Y, Z, R, G, B, ERROR, TRACK[] as (IMAGE_ID, POINT2D_IDX)
# Number of points: 351, mean track length: 3.9077753929239076
918 -0.1939471254009528 0.14353120244407225 1.4054382089316295 62 119 112 1.7370832383771926 22 5030 43 1373 31 893 27 2895
919 -0.34308408085905895 0.13609129310559823 1.4206966492022182 48 136 110 1.7611949197774521 22 5035 43 916 15 2871 24 2483 48 1846 20 1154
921 -0.32376096940616861 0.12649848589701787 1.4101520149368285 201 245 230 2.2119435366996507 43 1371 50 4576 48 4130 12 989 45 1852
1646 -0.42094069974667769 0.55556437464768871 1.3077759605395862 99 87 75 1.2558792544750019 22 2447 48 3946 15 3064
1131 -0.41918135996651706 0.42789800121632526 1.3191123872528365 129 116 99 0.92327547970390267 22 679 48 897 46 379 24 989 27 1126 10 678 33 809 8 815 38 627 9 538
923 -0.24389818194806373 0.11804279694909198 1.4352775516111969 0 68 47 0.59385478467585728 22 5048 15 2785 46 2161 27 2855 62 5295
927 -0.39858071190929567 -0.51603919663610565 1.4123884613134932 63 136 124 1.6104533165614974 22 5102 43 1717 15 2355 22 1771 46 1716 20 1850
1644 -0.16365982728314393 0.21387938948169227 1.4597305722671383 66 110 103 1.0205633197920232 48 3928 40 1634 36 2151 50 2254
1075 -0.60514191658867289 0.54933991583623787 1.2485979107611567 95 76 62 1.9016970831428743 22 466 48 587 27 703
931 -0.46013071763998947 -0.057883318089917056 1.4604528629393709 163 197 172 1.7649957061306669 48 4294 15 2672 46 1410 27 2691 10 1999 20 2297 45 1435 33 1308 31 851 36 1332 9 1323 21 1337 12 2717 43 1908 42 968 32 2311 32 1484 6 1768 3 1534 22 5140 22 3600
1234 -0.14018909993873435 0.30427256614117737 1.3507030946902583 130 177 164 1.4662316941068259 22 2197 48 1349 46 842 27 1369 10 1263 24 2639 36 726 41 1434 9 1223
7728 -0.6041892313901277 -1.262577963899381 1.3697421561009948 64 95 96 0.57202771428049815 46 500 35 419
935 -0.08863247716140045 0.328829745261007 1.4093160340249757 36 46 35 0.46204564148501776 22 5198 43 1454
938 -0.43175104377965745 0.38905669718247254 1.3157052336859192 131 120 99 1.1550705853506522 22 5220 43 955 15 3571 46 1061 50 2376 21 1447
1083 -0.61473407097559585 0.59220647215831534 1.3215383140402528 20 21 21 1.8005037039655933 22 756 48 624 15 3115
942 -0.17559948098449477 0.3818612386560834 1.3357814661444671 60 48 24 1.1947448924644055 22 5252 43 2249 15 3521 46 1095 41 1802 27 3093
943 -0.13712158573209085 0.3491305864232106 1.3761022746679639 83 68 44 0.29110144498922097 22 5257 43 2198
1596 -0.4718333493631035 0.42080919575741449 1.3123098918454179 136 124 108 0.24764061659403031 22 4135 48 3426 46 2346 50 4130
1542 -0.29823155314516919 -0.19265366491033073 1.3909911384638671 118 165 155 0.59468321703317784 22 3376 48 3122 40 2737
7738 -0.54077684972714368 -1.0379567022243528 1.3257666587718513 41 70 71 0.70494193156442453 40 996 16 385
951 -0.573066115444405 0.445643944195179 1.3079809738855477 151 179 216 0.6995771554361746 48 30 10 202
1540 -0.29585905654162936 -0.22884966028364895 1.397165826414569 47 93 83 1.717430005958833 22 3351 48 3086 15 2577 46 1156 16 2237 41 2847
1550 -0.22640271349694166 0.27901045231005367 1.3713487377336437 21 58 45 0.76745162296974512 22 2176 15 1421 46 747 48 3164
955 -0.58999331772355745 -1.1224309209920997 1.4302591602908303 170 190 219 0.60733520199872049 43 42 48 47 10 30
957 -0.23439625615307197 0.064186659185340167 1.4224355279415992 21 57 47 1.7141338647779851 22 119 48 50 15 139 24 101 27 186 10 56 20 95 45 89 33 56 40 24 31 58 36 57 25 51 8 82 18 189 1 360
15375 -0.20025287192036378 -0.5237769957594921 1.4734916470994257 92 128 119 1.0267595275377925 24 1462 10 1540 27 915 20 849 45 1069 33 1630 31 1908 13 930 23 707 30 1153 8 718 34 618 17 603 18 567 50 1333 41 743 29 1630 2 694
958 -0.60208916496557341 0.5085142089891298 1.2481547461522855 122 108 83 0.70252030271204446 22 65 48 55
959 -0.11284448378341609 0.20430958427735399 1.415816994880446 167 191 219 1.0617615489825258 48 62 45 53
1548 -0.22071220938723263 0.23210675065458436 1.4463036157435711 20 61 53 0.85137971638700916 48 3152 50 3682
2343 -0.16444297299493138 0.57123025361778113 1.2924309111212791 76 70 63 1.9209803245253958 43 905 48 1316 15 3088
1622 -0.34224154787261518 0.15794521320480678 1.4093363778587871 23 72 61 1.2822221932681419 48 3631 15 2775 38 702
962 -0.3836642554090583 -0.77045109735828432 1.5647911606179468 119 156 149 1.1767903293451256 48 76 10 122 45 135
1107 -0.21637210808072471 -0.18067501689419171 1.4002444632377264 102 136 127 1.5222530851555607 22 1125 48 769 33 548 50 531 40 610 31 503 36 554 35 314 13 584 41 1026 23 673 2 797 8 552 62 4556 28 629 39 304 34 436 47 686 7 356 12 1057 37 964
963 -0.1534115924688734 -0.059520087034033629 1.4100120174133075 20 39 33 1.7517375707773299 43 106 48 84 15 192 22 121
7760 -0.38177749029110858 -0.68296189009986108 1.4663969845850058 171 196 191 0.88146687376545052 36 945 46 2172 35 698 22 4683
965 -0.45099113029383464 0.065634372262506721 1.443831707212216 50 93 77 0.25722744197754627 22 118 48 94
966 -0.26515729942661992 0.052962368091348237 1.4146729366802344 75 118 109 1.3362518324403221 43 75 48 95 15 138 46 477 24 102 27 112 10 101 38 73
1620 -0.018158357223007664 0.51388562455471287 1.3128972912641066 37 21 6 0.35108254249059961 43 2019 48 3627 15 3038
969 -0.33807101313114629 -0.011976733816111106 1.3990606013741544 131 174 167 1.2503815731723484 43 105 48 108 36 148 12 154
1630 -0.56498687497879085 0.54315465096333471 1.2675674562312178 126 113 97 1.0255633187327586 43 2422 48 3756 15 2999 22 3818
1115 -0.45846569837313372 -0.046814913265372682 1.4603047408479608 128 168 160 1.146542048443814 43 769 48 804 46 595 21 1342 38 723
971 -0.25268549491698566 -0.19660764436966013 1.3837122220659828 151 199 187 1.5034562625654178 43 109 48 114 15 178 10 104 33 103 50 249 31 87 36 124 35 71 13 186 41 311 25 199 30 447 23 270 2 437 17 425 14 437 1 402
974 -0.28272143811919032 -0.93618491183710728 1.5508336167901797 30 49 50 1.6670930232220489 48 121 10 137 20 125 41 73 50 68 15 176
6444 -0.30110942356169329 -0.8480726696747356 1.5882660073920791 28 60 58 1.863873511217677 48 1481 41 2243 25 978 30 1473 2 1145 34 1613
7263 -0.24181400268435033 -0.02142199162155033 1.3701825658818831 197 220 212 1.3171443488195635 40 487 48 796 50 555 36 442 13 875 35 306 25 693
975 -0.15724756025450393 0.61172706072253913 1.2643984903169156 52 41 35 1.6869927843270418 15 186 13 90 48 134
1325 -0.14360088698393808 -0.073600537487268886 1.4282234033452812 20 40 35 0.73715480385196874 22 2025 48 1746 46 2067
978 -0.065998111893037142 0.54314467201690808 1.2817872212535752 68 58 48 0.84544634785616746 43 145 48 141 15 340
6448 -0.043895939053039408 -0.44060708779840357 1.6436066417596975 63 82 87 1.5268899495709694 50 5022 27 2530 22 3263
981 -0.24620577969280338 0.053825994702673227 1.4129689885764598 76 115 106 1.8310131682134561 22 188 48 155 36 277 41 420 25 143 2 469 34 276
6443 -0.37644912657027496 -0.94629089726319993 1.5181773385236934 202 227 227 1.2907321195548522 10 2637 50 4957 35 1159 41 2376
2356 -0.47048674212193631 0.53060476842375381 1.2373113908536149 66 53 42 1.410923858988854 22 2639 48 2109 15 3146 29 1241
982 -0.16202466981144478 0.53250641142741284 1.3466187029073928 111 95 80 0.30548071645411456 43 148 15 225
1333 -0.39487852830283654 0.044723060596407897 1.4326390255451975 107 148 140 1.3890547919515635 43 778 48 1804 46 802 21 329 9 584 12 684 32 537 6 623 3 1572
1710 -0.36870683925023068 -0.12132789368973994 1.4062389664401658 10 39 32 1.5856809631071371 43 1388 48 4457 38 2702 9 1464
6463 -0.32082883143453311 -0.99851700753780848 1.5892403832158721 161 184 188 1.430742934525624 24 1305 27 2110 10 1644 29 2142
2360 -0.30042767827251976 0.63026714402356687 1.2695365788515147 25 15 12 0.32549170614209189 48 1280 15 3166
986 -0.44656358520426553 -0.885593836519047 1.5758563887919232 171 195 219 2.1974044894954763 43 168 48 199 13 124
1195 -0.10562216036746802 -0.48076333492767875 1.5613868278160614 136 188 176 1.5444795306171777 22 1190 43 563 48 1152 15 956
987 -0.41867907469382321 -0.87195382279100397 1.5738863469997748 13 33 31 1.4500557226731026 22 163 48 200 15 294 50 149 40 191 46 536
989 -0.22947728025158051 -0.24701176597823618 1.3990423013779156 118 156 145 1.3985491904979426 48 218 50 245 40 217 36 125 35 73 41 218 33 79 23 129 8 164 39 53 34 177 17 181 7 140 12 421
990 -0.15924725551116106 -0.19052991082565926 1.4180629853551887 144 187 177 1.8480975244311546 22 179 48 220 10 159 24 197 20 137 40 103 50 92 36 123 35 43 41 168 2 100
1654 -0.23489440799377193 0.1888681866529768 1.4330845895707842 55 105 96 0.74699132395273216 22 4964 15 2402 48 4014
1139 -0.28462438796405859 0.37548581792937746 1.3248477747200937 67 53 43 1.2882100104171628 22 1568 48 915 15 847 46 627 27 1393 10 1269 33 796 31 521 36 598 38 874 9 633
995 -0.47243969985608014 -0.73750947325718808 1.4755808086382949 78 121 114 1.7596207820609788 43 182 48 237 21 230
7792 -0.19653690400639603 -0.46920039927267215 1.478957877236075 61 100 71 1.8146224294631097 24 2181 35 902 43 1773
997 -0.56416466039128121 -0.75267203678798789 1.5186437045937553 43 70 61 2.5675403257715841 43 294 15 2233 27 2244 21 365 48 239 22 950
999 -0.00090752453673579583 -0.52713450707482878 1.5673366849387509 160 185 216 1.7310731178413306 48 246 50 158 15 274 43 196 20 185
1652 -0.06931519386152829 0.62556179114986721 1.2896566043718609 58 53 43 1.7389640087669387 48 3979 13 3323
1001 -0.372488175017477 -0.30160315073257959 1.4064721765895316 76 122 112 1.120870231287812 43 201 48 254 22 341 46 205 24 316 27 396 10 326 20 199 45 204 33 267 50 414 40 215 31 214 36 274 35 144 13 440 41 449 62 489 2 515 21 149 38 183 9 361 12 412 15 445 64 1297 61 1198 42 235 6 976 44 484
1662 -0.3798807002420963 0.13289177306689381 1.4206872063185298 22 59 57 0.82440235043411791 43 1955 48 4103 46 2165 15 2787
1147 -0.37378520216967581 0.26441232246110957 1.3653478756130093 132 175 166 0.50064216838935804 22 997 48 929
1003 -0.44423731574037417 0.38878808704694545 1.3134799917701732 61 53 42 1.0726370499596858 48 278 15 329 10 401 33 210 50 196 43 226
1005 -0.15656270200613406 -0.020257697042253865 1.4597030546277949 58 96 83 1.9850250498386299 15 318 46 196 24 298 48 289 27 292 33 213 50 260 40 159 31 265 22 251
7295 -0.21764791925214497 -0.59489542450683941 1.5111769480000983 184 214 211 0.73337650324754533 40 720 36 643 35 464 16 167
1660 -0.25233826196359416 0.13645586204879437 1.4547028521426166 47 97 86 1.2388702990259683 48 4074 22 5020 21 1105 50 3566 31 1573
1606 -0.16347730668640176 0.42574102150885329 1.3720298247583869 42 28 14 0.97076122512112184 22 4468 48 3487 15 3433
15936 -0.42920111440901965 -0.74486973724274808 1.5018829557251234 89 106 98 2.0669723619804565 23 1326 4 1158 7 948 2 1539 14 1830
1011 -0.079574337417389326 0.5580407028295149 1.4304542826761921 84 77 70 1.6536506318321684 22 497 48 315 15 514
1013 -0.39338796594413794 0.42667342261473162 1.3195135060775505 125 112 96 1.1767039510247588 22 553 48 337 46 274 24 564 27 660 10 677 50 605 31 326 38 896 9 300 2 594
7802 -0.22474629212012673 -0.27439771123115225 1.4071047997046657 179 203 190 1.072874674079733 22 3299 35 1004 23 2384 39 764 47 3656 34 747
3143 -0.42314847386560928 -0.67577295710676211 1.4747085493407668 195 239 222 1.7308536260761052 15 128 27 87 24 65 10 46 20 35 45 20 33 44 31 46 62 29 61 140 42 18
1014 -0.20873199943236179 0.42814121863273463 1.3317617509820729 109 97 75 1.7866528336986152 22 530 48 339 15 501 46 272 10 410 27 588 9 548 21 254 38 415
1017 -0.31800290248930446 0.26654549653647464 1.3897143282385245 52 92 81 2.1960504712559548 22 308 15 652 40 521 36 495 50 1023 9 1568 21 658
1019 -0.23175822470172094 0.21267555207884387 1.4552797774378361 51 101 90 1.2445139103750966 22 366 48 356 40 518
1021 -0.27389536045638108 0.19014570218041543 1.4224903314322732 49 103 89 0.14445653565675576 22 363 48 363
1022 -0.26953431740233003 0.046770758631686234 1.4102193262660236 95 137 128 1.4864565700924492 22 353 48 375 46 304 10 469 27 540 33 396 31 310 23 252 36 285 13 417 21 330 38 504 9 357
1023 -0.24314331345226314 0.034140796384945188 1.3985889992444194 37 72 65 1.7202354976412488 43 270 48 376 41 195 25 144 13 282 8 379 34 408 18 230
1612 -0.25901701879697053 0.49320593019257891 1.2697876073223791 41 28 10 1.6252612847077414 22 2344 48 3562 10 1918 27 2865
1025 -0.41001007131308065 -0.054125536134224807 1.446082711981431 69 109 100 1.7288106319513465 22 349 48 381 50 558 38 309
1029 -0.3034812627234601 -0.18665588129845173 1.3935768909406177 136 182 172 1.1364041268311935 43 276 48 399 15 449 24 312 10 333 41 798 23 672 21 315 38 365 9 350 12 293 12 3008
1031 -0.15799885714573059 -0.29897770794156331 1.4666635972518085 92 140 126 1.3168469500576985 22 443 48 407 15 613
1032 -0.36179171723937159 -0.30844642418623924 1.4281246318362231 133 180 170 1.7616740726362676 48 408 10 228 27 397 24 317 33 268 31 240
1033 -0.42742467251572647 -0.92881155996169196 1.564944237543644 5 20 27 1.2416457232538904 43 307 48 410 22 526 46 402 40 656 15 1007
1976 -0.47243510862789595 -0.40920678517737735 1.4363214171903964 99 133 108 1.4273605250774195 22 1852 15 1211 46 692 43 1794 27 1811
14725 -0.32330635641056937 -0.78452581106423003 1.559039001326902 65 83 87 1.517527542948339 30 102 41 207 17 111
1034 -0.15573761934392941 -0.40930113257752238 1.5517035895419238 115 167 153 1.3161044153332695 43 628 48 411 15 1251
15294 -0.17254913932521546 0.21203728283547496 1.4477577254457297 39 80 77 0.077503338490837348 30 1174 18 1152
1041 -0.47139309201671192 -0.84178135161800038 1.4654247155760196 125 164 156 1.5823366628011351 48 447 15 383 46 247 36 279 40 2171 35 123 8 461 34 533 28 2011 22 511
1045 -0.18870876796700611 -0.19029907967092913 1.4121420483899885 130 176 166 1.427391258046518 48 476 10 332 27 525 50 527 23 269 2 438 22 450 28 733
1048 -0.44201960714680888 -0.94672846929043963 1.5900306836500973 176 197 220 0.6771865288037624 22 527 48 484 27 1225 20 645
1049 -0.26751582675112873 -0.059803430648616374 1.3796742778792643 130 175 165 2.0777055082195073 43 273 48 490 35 552 13 1282 38 360 21 320 9 1099 12 289 10 2007 32 2350
1050 -0.45726952300347812 -0.91133251039529573 1.590134643731415 172 193 216 1.4601462063229902 22 827 48 492 15 1003 46 266 43 646
6549 -0.3637751334066428 0.18377641627405011 1.4127496943698916 39 98 115 1.3414329403627789 50 357 40 284
1932 -0.38730152214332042 -0.17426223214735698 1.4194802819682499 116 144 127 1.8958313804120297 43 1873 15 935 33 1815 40 1973 36 1304
1056 -0.11981500116887651 -0.011457402110689205 1.5552460640539003 20 39 53 1.8417020335864107 48 510 24 460 46 233 27 534 10 461 20 270 40 138 22 616 33 249 36 153 50 177 15 1340 45 255
1872 -0.23649029490834073 0.52954329100043473 1.265365727500718 80 67 54 0.25154115324998794 22 312 27 713
6851 -0.25314652366551549 -0.61956677146912553 1.4839219629906351 181 226 230 0.44284871392698777 50 4989 40 2284
2397 -0.51980596751284702 0.4100578574262142 1.3266375247358608 245 216 177 1.2672005240641024 22 4606 27 3109 46 1112 24 2737 15 3508 20 2150
1063 -0.34267215762580505 0.34070100463291242 1.3373080371415862 135 188 172 0.95183306054246719 22 433 48 545 46 282 27 648 45 302 33 494
2395 -0.077441449587954292 0.37816269380161044 1.3987770779612827 82 71 63 1.3373123120309052 43 2292 15 3492 20 2145
2763 -0.28867416795304229 0.40833632462587222 1.3277578761608091 171 161 134 1.0244341214459463 48 4450 46 1974 36 1671
1065 -0.30019601833445825 0.39368684904554735 1.3281520545176881 128 115 96 0.8546068931940175 22 423 48 549 15 3526 46 349 27 650 24 556 10 669 13 498 25 508 29 1112
1066 -0.29157663884940005 0.40914253423720642 1.3304199951406512 135 124 104 1.4968939727483999 22 595 48 551 27 654 46 276 10 672 33 505 31 419 36 374
1071 -0.27279196592349786 0.43659889052757977 1.3309707553907995 122 107 88 0.75515737189730159 22 412 48 562 15 664
1072 -0.2810004034251582 0.44669527047144686 1.311095134885832 126 109 91 2.252027662069557 22 690 48 563 2 345 9 615 21 470
7890 -0.10747035779153316 -0.45836579612978712 1.5648076510617455 93 146 115 0.6355019881649191 43 2395 35 1691
1073 -0.35708728881281898 0.5439426628206343 1.2532865094778987 114 86 70 1.2230739496174248 43 892 48 580 15 1886
2477 -0.27513973424296745 0.3911972669624848 1.3314995782510384 127 116 97 1.1241778505787661 22 665 48 548 15 837 43 536 48 1999 46 350 24 554 10 667 33 2167 36 473 40 601
1074 -0.56188536885391849 0.54584004889028692 1.2532536544050623 124 111 94 1.4887204598197927 22 468 48 586 27 706
3793 -0.3547085607796131 0.279937307314513 1.3766517164399288 126 171 155 1.4699222694190663 15 3658 27 3026 24 2588 22 4879 43 2121 10 1244 45 1231
1079 -0.17426749200249583 0.63164910232398197 1.2716773703096975 114 106 95 0.67515830134090027 48 605 15 516 41 646
2475 -0.1036565636801004 -0.47105214350139718 1.557976810897328 0 30 26 1.7125906072591779 48 4407 15 2483 22 3157
1080 -0.29138068378285176 -0.82981369680176231 1.6165773029746202 64 94 92 1.827828095274306 22 600 48 610 24 743 46 166 27 483 10 437 40 369 62 679 15 588 31 332
14835 -0.16855038831806027 0.14114752511367459 1.4466332252875755 81 106 110 0.37288455791193992 28 2498 17 1051 14 1787
1089 -0.038229287346700142 -0.47999393825122155 1.5376573299761198 106 146 135 1.2668596313481524 48 666 33 370 31 288 22 428
1093 -0.30799460401422518 -0.94684568189126039 1.5416406033691872 103 137 129 1.6008233867307289 43 615 48 691 15 1012 22 1082
1095 -0.55414509076905261 -0.89538361534633182 1.5354525347921115 34 83 79 1.983125874259315 22 529 48 696 15 2146 46 937 43 337 20 289 45 417
1097 -0.51798873171455706 -0.82044301604342706 1.4809498859684489 141 182 176 0.13234377442688389 43 341 48 698
2040 -0.45632533775611361 0.36182631453089359 1.3130727939136286 35 42 35 1.2074343993864978 43 1444 15 1430
14789 -0.12458192395098504 -0.04282072369658186 1.5351317513137135 71 97 101 1.1623303700752727 17 651 47 828 4 1502 28 2371
1098 -0.357050190391351 -0.83600885460220631 1.5244546608553589 53 93 85 0.81223350662019189 22 1277 48 699 15 999 50 705 13 1278 25 976
2044 -0.1828848939996329 0.34617235998607138 1.3604324577399913 79 77 64 0.21212290423128857 43 831 15 1452 46 619
1103 -0.048005490603650502 -0.50538261982883737 1.5561615470559831 127 168 160 1.6582086361870936 48 741 38 2324 21 1191 50 741 15 2450
1988 -0.24865293270132188 -0.30529174728592401 1.3953643884652178 81 112 107 1.1267819480299013 22 1899 43 739 24 1534 27 2577 10 2745 33 2080 50 1891 48 1640 40 1434 31 1705 36 1230 35 642 13 1823 41 2765 25 1416 62 5820 23 1906 39 757 38 2350 21 1311 9 2318 7 708 12 1262 15 1253 16 2128 34 1424 64 8092 11 2144
2338 -0.44833112094550093 0.57861845615980501 1.2427640306708456 64 61 52 0.81365690828291903 48 2169 15 3056 9 912 38 1716
1121 -0.33242613541364152 0.5370155611598908 1.264922821185831 97 80 64 1.2896982521529265 43 562 48 853
1122 -0.2606588966374998 0.53550603911373029 1.2682073735270121 115 98 80 1.1315655658278603 43 426 48 855
1125 -0.062604531784283018 0.52129418387119564 1.3100128094401284 113 97 80 0.71827647485852697 43 627 48 862 15 1571
1940 -0.39960876354314151 -0.36347610102613259 1.3895235260770127 90 125 118 1.580348158876999 48 747 46 688 24 665 27 518 10 512 20 823 45 358 15 957
1127 -0.16133283353067041 -0.31651442618537151 1.5255751956051167 88 132 120 0.81710888758794031 48 881 33 269 31 725
2459 -0.54170428579140939 0.43318055541144801 1.2616245390956076 176 144 102 1.1481475617207852 22 4608 46 1109 15 3796
1128 -0.016990022342191963 0.46823501711380916 1.3066408270593028 157 181 215 0.55480638725665388 43 870 48 888 15 1529
1129 -0.34757718391908909 0.44398621884328404 1.3008907185718468 102 93 78 1.6367543687584232 22 683 48 893 46 270 24 579 10 381 40 532 31 244 2 1195 27 905 30 1287 50 867
1135 -0.42925290653479914 0.38157151177599558 1.3165836957200179 67 57 47 1.3352808297613639 22 649 48 910 15 851 46 628 27 1114 38 618 24 1769
1143 -0.18488007301160569 0.37220935290160811 1.3341858002703708 65 54 48 1.3881155329399069 22 658 48 922 15 842 46 631 22 4739 24 1764 27 1402
1145 -0.11208194134018695 0.28148910262953258 1.3877444996323698 169 193 217 1.251539082613693 22 2623 48 926 15 1427 46 841
2024 -0.2404480139475676 0.11732996787468553 1.4371709281279395 59 86 79 0.91119359626042795 48 1034 15 1364 27 1950 24 1402 20 756 45 788
1146 -0.39730036522036538 0.26392275374333535 1.3839753135749202 142 185 176 1.6852821906378528 22 551 48 927 46 287 27 633 24 267 10 497 20 244 33 333 40 279 31 317 36 465
1149 -0.51851693157348311 0.6057265408894219 1.2896122248773974 26 23 22 1.9670731138437823 22 762 48 936 15 746
1151 -0.4266938721351452 0.097465482771737014 1.4938063711647347 40 90 79 1.5746724479410379 43 392 48 944 46 485 24 290 27 547 10 352 20 184 45 265 9 210 15 894 42 332 44 376 21 162 12 236
7150 -0.47272497967072569 -0.86330230047302736 1.4802022517412323 117 132 129 1.7877416864494133 24 1333 20 1599 31 690 33 889 45 423
6416 -0.31614703120143345 0.120668571629916 1.4005658791372846 155 201 193 1.5933625543724286 48 4139 50 4595 40 2796
1156 -0.37916116799017718 0.12036289770314831 1.4162141033889131 142 187 182 1.321805684813611 43 262 48 952 50 2192 40 835
1157 -0.34992403634093189 0.12610669684613646 1.4074898165639609 61 103 91 1.9275974682112482 22 624 43 789 48 953 15 1354 46 575 15 141 24 98 20 1152 33 80 33 755 50 933 40 35 40 552 31 79 36 553 10 1187 24 1266 31 554 2 1114 30 229 21 634 9 1135 38 708 12 988 23 151
1158 -0.43086021968366933 -0.026612692626574484 1.4548405910410733 39 78 67 1.1474471445153378 48 964 46 2090 27 1911 24 1607 10 2022
1160 -0.33988956111321311 -0.99883278551618671 1.5296194164811217 157 189 218 1.1567107947813429 24 1301 27 2104 20 1372 10 2635 15 1022 43 437 48 975
1817 -0.51086253372416246 0.66603743065304899 1.262143702378892 45 39 34 1.6370338126705837 22 218 29 480 15 395
2328 -0.50482691964772142 0.52777394138506672 1.2658622057380131 104 87 77 1.4368727444670717 22 1500 38 1652 15 3015 27 1497
1163 -0.26872964838144059 0.20133548302476945 1.4564121236029235 20 63 54 1.9292849668594607 22 1004 48 994 15 871 27 1238 24 1668 10 1201 31 1609 50 3635 62 5446
1164 -0.29955879162326687 0.19933115926700309 1.413681448971907 41 82 66 0.010764381332970429 22 2151 48 1000
2322 -0.23571357618749239 0.40522844439040545 1.3291609374916158 79 67 58 1.6418008735194305 22 4596 15 2947 27 1419 10 2327 21 2230
1166 -0.26254636495127009 0.14980133866237899 1.4295608818075907 63 113 101 0.78635681816793845 22 2130 48 1022 62 5365
1168 -0.32721780768115799 0.14118777640179653 1.396840363006207 72 123 114 1.4137368328903483 43 1372 48 1032 24 2486 50 1075 40 1598
1889 -0.34227403492671904 0.56386764975981085 1.2469244575562433 34 36 28 1.724658660710398 48 2145 15 769 38 2640 41 3757
1171 -0.12577580859496507 0.075727957002229632 1.4852744397857311 94 134 134 1.997231572212637 22 2108 48 1042 27 2756 31 1548 10 2077
1172 -0.45505440129201952 -0.59935227812392289 1.4632988511641505 133 184 175 1.5096271522370772 43 1689 48 1046 33 592 10 305
1893 -0.2873213269679466 0.53710471986705466 1.2524057552659313 95 83 70 1.2214759873088941 41 1257 13 1185 38 1689 9 906
1173 -0.29260681214371742 0.087212212445875223 1.4213374443017113 34 65 57 1.6242048830950195 22 2099 48 1049 15 1345 46 811 50 636 40 779 36 548 41 417 23 921 30 863 2 1261 8 384 28 338 34 405 13 412
6426 -0.39588279973519236 -0.042222918675089552 1.4503276209645126 58 101 92 0.062385114645129761 15 2684 50 4752
1174 -0.13214892673829345 -0.024418394046181766 1.5016989363569881 92 133 125 0.3656069772546322 22 2070 48 1060
1176 -0.38475265266024794 -0.009068832537908085 1.4178013340948508 54 97 90 0.92099289934617801 43 771 48 1068 27 651
1897 -0.077984171005017977 0.47060453428511645 1.3202586259099796 112 96 83 0.1859869889112799 43 873 15 803
2408 -0.25247706025070005 0.3771411269026711 1.3399685330136339 90 80 70 0.61484236708237761 22 4710 43 2225 15 3548
1179 -0.37045242035121051 -0.10914932358354909 1.4125886335147004 73 104 98 1.2068913207783805 22 1105 48 1090 46 648 27 1888 38 1169
1901 -0.20443591422090746 0.44051062602324936 1.3263635865562322 123 109 98 0.90965097330512512 43 2307 15 815 33 1428
1181 -0.19895322560500217 -0.15709920784926279 1.409207233168597 111 153 141 1.0097831905496959 22 1117 48 1106 50 1028 27 981 41 1594 23 1025 12 1345
1184 -0.20716604859669596 -0.18836646276910748 1.4065526924392726 138 184 174 1.3514474149147568 22 908 48 1116 46 659 33 698 40 470 50 528 31 486 23 987 2 795
1189 -0.15673974379407618 -0.35117280490602293 1.4951276181964228 58 112 97 0.63183853970580572 22 1164 48 1138
1192 -0.25391893556254208 -0.30080120053671672 1.3958725007414541 138 184 174 0.80610107569128064 43 1302 48 1144 15 2545 46 1029 27 1847 24 2859 36 1608 35 870 62 5807 23 1882 39 1221 38 1406 21 1123 9 1445 12 3096 11 2537
1849 -0.28548797296824818 -0.44318323051912822 1.4113172389206758 114 153 147 1.4166022415534387 22 335 48 611 27 508 10 507 33 371 50 505 40 450 31 289 23 316 2 186 39 154 15 601
1197 -0.070741057201941959 -0.48307664284944835 1.547962496634623 81 118 111 1.4841684556271499 48 1158 40 1366 36 1553 35 942 15 2470 43 727 16 1143
1200 -0.083924983491746069 -0.54183481711066905 1.5652731390453232 143 196 190 1.4357659207321039 22 1209 48 1173
14592 -0.35608275509774739 0.2594942802247337 1.3958941052154488 125 149 141 1.1720893176203517 21 656 38 840 9 2249
1203 -0.26711401685708852 -0.48717162654795232 1.4264936748320907 118 170 158 1.3931198800727431 43 569 35 924 36 2010 10 938
1204 -0.44007048200023707 -0.6396515439379391 1.4809457112640445 118 171 165 0.20242613497386133 43 1195 48 1198
1205 -0.40946471733968315 -0.62163410475289549 1.4473243140268306 87 129 117 1.3740567961596966 22 851 48 1202 46 718 43 679 24 713 10 547 45 450 50 3183 40 1053 36 955 35 630 62 1066 2 1586 9 1329 20 1764 39 501 64 1807 61 5371
6458 -0.11241173357268612 -0.35249265617730208 1.5572430948059022 57 95 86 1.8134166820869775 50 1895 48 1129 46 218 16 2125 43 455 22 1927
1206 -0.48713253404581702 -0.70123273666224351 1.4881039238018712 62 111 105 2.3816413991265191 43 671 48 1204 50 3125
1208 -0.45987261895972203 -0.70868900319911765 1.4846953603594446 52 101 95 0.54165182071385087 48 1209 36 947
2312 -0.29610143234344538 0.13470910465214481 1.4298825371636461 32 52 50 1.4897871948254988 22 5026 15 2838 27 3302 40 839
1211 -0.52225968414905899 -0.72920901785847281 1.47847152215833 84 116 105 1.888363393786499 48 1213 40 1485 35 699 36 1105 9 993 21 729 22 1258
1212 -0.28782016707653735 -0.85221399877199788 1.6135717676690411 62 93 95 1.3371263820036183 22 1260 48 1220 50 468 27 1308
1805 -0.24015319204690563 0.28050394986101912 1.3569697864944117 17 29 27 2.2326828275293065 15 326 46 2251 22 988 48 255 41 567 25 561 13 619 29 1291 15 3652
1214 -0.33329338222032684 -0.87191555728996384 1.5237287760603577 90 121 116 1.5046495796403914 22 1665 48 1237 24 1914 27 2176 10 1426 50 1405 40 1015 36 913 35 509 41 1136 13 953 25 758 30 1091 23 787 2 1035 8 501 28 1216 39 432 34 593 14 1942 15 2165 62 2256 64 4530 63 7194 62 2259 67 1207 69 715
1219 -0.32376636699676242 -0.8914440201580246 1.5320596807239746 63 91 91 1.3076955065600506 22 1297 48 1243 50 698 24 1903 27 1290 25 967 16 589 41 1138 30 1089 23 796 2 1031 28 1215 17 545 18 593 47 1462 14 385 62 2252 11 1052
1220 -0.40320186763153776 -0.93484705667233992 1.5259511783415047 11 22 24 0.95239157752423631 43 940 48 1247 15 1966
1221 -0.090666859740127947 0.3032959005798756 1.3827659872279965 98 127 135 0.99406549809137867 22 4835 48 1249 24 961 10 1383
2392 -0.1202162088217664 0.41278191643981449 1.3322506848989077 81 71 61 0.98798267944832274 22 2276 24 1782 15 3483
1228 -0.29331257281523498 0.57662762835110415 1.2777952616258261 80 71 66 1.1792850882555694 43 1065 48 1309 15 751 27 1219
2386 -0.25463477663127798 0.43624714484686844 1.3493024378805922 62 49 40 1.3720206122394816 22 4466 43 985 15 3448
1230 -0.21523686768804734 0.5458839338419843 1.3235438536557633 122 111 93 1.4838698112113928 22 2455 48 1326 15 760
1235 -0.37967633968269549 0.51584627242229719 1.2716387200136747 101 85 62 1.428092921273264 22 2379 48 1356 15 1550 43 2241 27 2401
1237 -0.27171203031663416 0.5265833627139398 1.2549662731876845 108 92 69 1.7050731027934358 15 1552 41 1274 25 891 38 1683 9 1671 13 1173 48 1363
7723 -0.045381258485825852 -0.44971084762740032 1.5396227446471733 33 57 44 1.6593622895214302 36 1001 35 407 25 439 13 554 16 666
2617 -0.51155919096131963 0.40443267150319823 1.3201910797943748 215 198 170 1.1017473268396465 22 2260 46 1104 27 3106 20 2149 15 3527
1244 -0.29475719218403268 0.4468531850583749 1.3088756384981246 135 122 105 1.1243909127486837 22 2295 48 1402 15 3461 43 980 46 556 27 3173 24 1791 10 2696 33 1101 40 931 43 542 38 909
2466 -0.2733093348661414 0.50025757813473404 1.2617823245926874 63 54 42 1.9832486029395591 22 2356 48 2083 15 3372 43 1031 15 3362 43 1025 48 2278 10 409 33 1921
1248 -0.40503760937060451 0.41610786231748886 1.3201600291267601 91 77 60 1.1751647371659411 22 4115 48 1418 24 2750 10 2334 33 2188 50 4085 38 2372 9 854
1905 -0.26379960092638766 0.39072878507847181 1.3298522934931614 100 87 75 0.7363848569170145 22 981 15 836 24 976 10 813
1251 -0.12562038568955344 0.40907286886229238 1.3357007717803115 145 132 116 1.4446086509271174 22 2275 48 1424 46 877 24 1779 10 1285 36 842 40 908 13 1063 15 3488 27 3124 41 1389
1252 -0.38377904120448497 0.40824425584309698 1.3228140902963925 125 116 101 1.5852351953921926 22 1556 48 1425 46 641 33 992 31 516 36 849 40 2575 25 865 8 826 38 882
1909 -0.41172440567557289 0.37947160865367718 1.318571157428521 60 52 40 1.1469908352915767 22 1570 15 850 46 378 27 1111 24 1760 38 585 45 756
1253 -0.11521326117090547 0.40806912359384878 1.3379811082391164 137 124 108 1.5637484572153135 22 1550 48 1426 24 1780 10 1286 36 841 15 3487 27 1422 41 1393
2935 -0.42868102462803104 0.432232114043963 1.3159698480240865 77 74 72 1.682314662059563 27 1426 50 4145 40 1717 2 1193 22 4035 31 1343 8 1056
1254 -0.46164050449744903 0.36928799272756857 1.3102087658525869 90 80 64 0.62734283302742089 22 1410 48 1444 46 855 10 2305 15 1441
1256 -0.39647079907974525 0.36162536247357713 1.3243402387809884 83 76 63 0.49943884062720595 22 1345 48 1446 46 608
1913 -0.23718128755634443 0.22299242153279247 1.4503979652587726 48 78 70 1.6433393913809045 48 985 15 866 46 589 22 4918 24 632 27 1071 40 1640
1259 -0.35125063405119689 0.36086721147259243 1.3245341972085496 102 93 78 0.62297425241493309 22 1338 48 1450 15 1444 46 611
1260 -0.30939439728408019 0.36319959287685188 1.319147408274973 108 91 76 1.8684608861216307 43 1448 48 1451 12 1685 24 2693
1917 -0.2455552170040308 0.15328928039235112 1.4501959903113029 52 83 75 1.2836577978870194 22 629 15 885 46 581 24 905 27 1052 10 867 20 747 40 562 38 1228
2418 -0.28075463633444919 0.37475425398086287 1.3203879693767042 89 75 65 1.5948223014708138 22 1567 24 1757 15 3590 45 1271
1261 -0.37713887554840669 -0.9098519901428902 1.5666413783084201 57 97 89 0.14418966450334636 22 1663 48 1463
1262 -0.38594257847480856 -0.88134085751788738 1.5400800385389997 81 122 116 1.3601020487284361 22 1288 48 1464 27 1651 10 1425 24 1330 45 828 33 2218 31 1141 35 1195 62 1573 15 3071
1264 -0.34947758546767921 -0.83331965032630129 1.5226446456110194 33 65 60 1.1955479471683435 22 1682 48 1470 15 2186 46 1606 36 1844 35 1204 13 2262 25 1660 8 1352
1268 -0.47639882948600981 -0.76389759662876733 1.4784697293089348 85 129 122 0.83441273992421539 43 1159 24 1377 27 1556 48 1482 10 1453 45 1008 46 950 15 2211
6522 -0.42993425548907616 -0.69526505336536304 1.4858558199074019 208 249 240 1.518755199283508 40 86 35 50 16 47 12 193
1270 -0.54036412397116262 -0.76689162504301578 1.4812624654910349 23 59 42 0.57136458558800085 43 1601 48 1485 46 1623 27 3254
1865 -0.21766722214882284 0.30680583742218986 1.319223922207873 105 133 117 2.108022933852745 43 2419 15 655 46 210
2376 -0.38960847240960322 0.48252159950694568 1.2996568504049053 56 42 31 1.8157285534927941 43 2118 15 3382 21 850
1275 -0.29963297467909566 -0.77096951963971316 1.5710336931013504 6 27 28 1.1482799383458842 22 1249 48 1505 15 2023 46 36
1276 -0.46633390801287661 -0.70675752002223047 1.489440984928742 55 108 102 1.2989333843490467 22 1725 48 1506 46 958 33 1156 45 1671
1277 -0.35693949607676906 -0.6681751788335093 1.4653592927098937 146 179 172 1.8008912496197091 22 1733 43 442 48 1509 15 986 46 963 24 220 27 418 22 1242
2237 -0.15379203077521192 -0.51934286190114121 1.6315529800085016 0 81 90 1.774899501090202 24 2147 22 1868 46 1319 43 1281 24 2150 27 2864 45 1918 45 1950 10 2607 48 2940 15 2486 43 1808 48 2939
1282 -0.46334745072751443 -0.59883163898159653 1.4617637849799159 54 115 108 1.8324339875883435 43 1202 48 1538 36 1155 35 622
1716 -0.04459759898402909 0.40869879258988623 1.4014513793050902 159 185 218 0.75476736237199127 22 41 43 23
14469 -0.50035207891155165 -0.2007238395754431 1.5231677368689256 86 129 137 1.1459172791044492 45 1124 9 1082
1290 -0.44548209385848536 -0.47603245025074103 1.4237691703201976 35 89 76 1.6408795268454559 22 3019 48 1580 10 2577 24 2159 27 2466 20 979 45 1944 33 1660 20 207 46 1297 38 2250 9 1365 62 2477 31 246 15 436
1293 -0.034136762215031577 -0.48955405528398349 1.5440046252517015 42 81 69 1.6461284010942914 22 1845 48 1608 15 3702 43 723 24 2169 46 1311
1724 -0.46497787765733117 -0.024065074617191314 1.4741570385025997 96 140 130 1.5412695013517468 27 647 43 480 21 622
1297 -0.21749296485949393 -0.42314889430745645 1.4492986003534669 146 192 181 0.96429946749799367 22 1846 48 1613 27 1805 50 1832 41 1519 16 677 2 1377
1664 -0.33950513270980753 0.12841598440244401 1.4054814598325891 2 34 29 0.53309311299365314 43 1369 48 4125
1668 -0.27485391310378293 0.083712809929261389 1.4334084736627437 15 42 38 1.1051259376920446 22 2682 48 4163 46 2140 40 2306 21 1743
1303 -0.30148621287831096 -0.27938790296960769 1.3944302906057486 114 155 147 0.67836700537095374 22 1912 48 1655 10 2455 24 1701 50 3601 39 1230
1305 -0.27954950471184714 -0.25729662749502274 1.3942146481088171 152 196 183 0.45333349324878303 43 746 48 1668 38 1157 21 1016
1672 -0.22832202570946844 0.62675179326116559 1.28409168551022 32 16 3 0.19150532548470581 48 4179 15 1639
1306 -0.49963787152675193 -0.33929210860747266 1.4865004054466135 16 52 44 1.6529275255599432 43 1306 48 1670 22 3261
1309 -0.13088944877159667 -0.36940809186881779 1.6093679787374593 45 72 65 0.080777809977758699 43 2398 48 1682
1311 -0.32084894948242193 -0.20104731463698391 1.3901712111183251 131 177 167 1.308173180206728 22 3364 48 1692 46 756 33 1803 31 1372 23 2067 41 2876 9 1769
1312 -0.10295087292096734 -0.39601458283317592 1.7187232292530454 32 52 51 1.4462018463313704 35 1014 16 1250 22 3362
1313 -0.19789766335377917 -0.18348427905039355 1.4112841604584803 130 177 167 0.7900897677405444 22 1124 48 1700 33 700 31 607 28 2310 39 418
1616 -0.23452755877657003 0.4897605127363448 1.3183007220828213 80 64 41 0.58865903213613402 22 4370 48 3614
7107 -0.36548086246471917 -0.26873305698327016 1.4052287341076448 163 230 228 1.0703363188998001 27 961 33 1775 31 1675 62 2679 23 1888
1314 -0.1065412092427218 -0.36821284302602536 1.6744088864794828 60 93 92 0.79297475889953939 16 328 50 833 8 535
4033 -0.52091507727568764 -0.573669516466634 1.6066803361816133 168 180 195 0.90865411472412183 24 423 27 832 10 276 20 468
1319 -0.45840796186422389 -0.17273975343897019 1.3997581140643711 106 143 135 0.0061581060386472642 40 2732 35 1837
4042 -0.30233892154543968 -0.78168722731745799 1.6405306053276141 181 184 190 1.5316741340056164 24 342 27 220 10 299 20 149 45 225 33 215
1321 -0.4498099755927793 -0.17648628145883316 1.4409232076783887 77 117 109 1.534431329258489 22 1973 48 1724 15 2610 24 647 9 1074
1624 -0.47201028373996656 0.53183883553186306 1.2601278533897322 79 62 43 1.593653101086999 22 1494 38 2546 9 2436 15 1554 27 1192
1322 -0.33583728440380106 -0.14011059601105777 1.4054348850838543 59 98 93 1.5773704371832944 22 1115 48 1725 24 836 33 706 36 1307 35 830 9 1798 62 4674
1328 -0.46923841035572145 -0.034288025732183182 1.4237927180895142 65 101 99 1.159637942764649 22 3596 48 1761
6307 -0.30076814737420349 -0.88953505167358304 1.5595404587100372 38 69 71 1.213612438083786 24 1908 27 2168 50 2912 36 915 31 992 33 1116 35 511 30 2748 23 468
1329 -0.12610027360638948 -0.050048430967407506 1.4925578707009786 52 73 68 0.93638625864824254 22 2058 48 1767 46 1415
1330 -0.24263641722604098 0.019102013113234999 1.3870404608833886 87 138 129 0.32481937217251061 22 3645 48 1770
1335 -0.52744110591025062 -0.68783979972494147 1.5308695859287682 88 134 123 1.6782902100702455 43 1660 48 1813 40 2276
4058 -0.50626745080953306 -0.25673745174536811 1.5047791440515981 146 187 183 0.84686893096232918 24 313 27 790 10 330 20 198
1336 -0.2090200169965267 0.086506630115627287 1.4350842625987483 80 131 124 0.84459196412851523 22 5078 48 1818 10 1168
3035 -0.47149233179130529 -0.053195614436071743 1.4607950387057447 66 100 99 0.42678913526654683 43 2246 27 2692
1337 -0.21638454156937162 0.1049851948313367 1.4772944857698649 72 124 119 2.2527314351729824 15 2857 20 2262 40 1596 27 1037
1338 -0.40078313770332702 0.10329159587248547 1.4440375717006557 85 127 118 1.5140517531593698 22 2111 48 1833 40 2332 9 726 36 2106
6325 -0.39525601429533735 -0.61792090869027649 1.4395963522823914 190 232 218 1.620696007933031 43 678 50 3174 23 2296 39 381
1343 -0.1245094607235667 0.12702722120219337 1.5021448406918381 33 66 70 1.4096786799711583 22 1021 15 1378 43 1975 24 2480 46 487 10 2110 48 1873
1345 -0.27917874351248301 0.17751872633914637 1.4275189157851775 55 93 85 1.2355184659574614 22 2148 48 1883 20 1171 62 5424
1776 -0.49639999550259506 0.62050638932760105 1.2557314888392146 48 43 37 1.7647335411278868 22 102 15 149 29 241
1780 -0.091907598405660734 0.453028707624478 1.4072802528230146 97 79 65 0.39882110804319915 22 197 48 89
2806 -0.41076153404451221 0.33835262222171325 1.3359042938624253 180 225 204 1.9195404708339281 22 5255 46 2267 27 1568 22 2210 10 1266 24 1750 20 1249 45 2010 33 1412 40 595 31 928
1351 -0.21154426900477835 0.22911184335503534 1.4311880465544651 99 141 137 0.47510712763503815 24 1687 27 1073 10 847 22 2162 48 1927
2299 -0.18599822444118277 0.036641825253613342 1.4200435326415948 63 94 89 2.6675765725550682 22 1054 46 193 24 1620 15 2727 21 1732 50 4710
1784 -0.14336502542732926 0.026731018670909851 1.4604802154553975 87 118 112 0.33789538277925074 22 354 15 207 27 379 10 348
14533 -0.22715571708092333 -0.021157282099578668 1.3992681651142269 22 48 45 0.044429165642022497 33 1954 9 1752
1354 -0.38598765042611882 0.25304917775892094 1.3876594031808103 58 101 94 1.3131220112731827 43 1418 48 1936 15 2257 33 2084 50 3718 9 2225 9 2226
15102 -0.44610268480209847 0.41523905223844693 1.3133634734349102 157 141 124 2.0109955230366019 48 3415 46 1975 27 3098 22 4603 9 1597
1359 -0.32129262168020278 0.377429315340923 1.3181318061826479 70 56 43 1.3688514400738481 22 4749 48 1965 46 861 15 1463 38 870 45 764
1360 -0.066930424896854454 0.34562832089627943 1.4136270916030911 82 78 69 1.4203078953686263 22 4689 48 1969 15 3530
1569 -0.26143023014590883 0.37596259975238655 1.3425170231330863 104 90 79 0.48566294775316327 22 4711 48 3293 46 1073
6339 -0.40104620499383986 -0.44936014602340124 1.3983672345172977 180 224 212 0.9841625630092673 50 3388 40 2665 10 2733
1732 -0.59723915086908563 -1.3008539453471442 1.330494922507363 4 22 35 0.49486769046488727 40 1774 62 920
1368 -0.10694768721058762 0.40417875423427352 1.337152898032913 120 109 96 1.7472258207265401 22 4219 48 2013 13 1987
1577 -0.22725995443145589 -0.1756255735889857 1.3899018416004698 88 121 112 1.5289055060592138 22 3401 48 3330 10 1110 24 2348 33 1813 50 1981 40 1950 31 1386 36 1291 35 840 41 2862 8 793 39 798 34 735 12 2981 62 2809 47 1669
1373 -0.40512169257637987 0.42437666597462792 1.3209087468746878 72 64 48 1.1121369933583001 22 2277 48 2033 15 3493 46 1124 27 3132 24 2761 10 2342 50 2421 38 2409 9 1610 33 2194 25 1894
1740 -0.24743006460092093 0.38116614139371569 1.3265349093155565 102 92 82 1.6286332773925392 43 2226 15 3547 22 4709 46 1925 13 2864 38 2661
2082 -0.26652994019394133 0.54917804181910279 1.3172752602580471 97 87 78 1.769612649234934 22 2451 43 895 15 1588
1377 -0.26349028076650133 0.42933007750742885 1.3268465328673273 142 134 113 0.97692888190518457 22 2282 43 2299 48 2039 15 3475 46 883 40 923 41 1901
1680 -0.4220317233909639 -0.027318685980794677 1.4576564529085045 34 75 63 1.3962277082523737 22 3635 48 4259 24 2431
1378 -0.16336716491646638 0.42569757801256114 1.3424679390328025 110 95 74 1.3021660980691994 22 2291 48 2043 46 1137 27 3148
1381 -0.18281868562870013 0.44225494725749326 1.3398487545694098 52 37 16 1.5611542801084917 43 2312 48 2053 15 3421 48 4489
2710 -0.31288296393235526 -0.53149360725779526 1.3976360227316633 182 233 223 2.4909975544848351 48 2725 46 1705
1383 -0.10473945428510086 0.4809268021494264 1.2958824255434866 142 125 107 0.61512965405731379 43 2361 48 2066 15 3004
1384 -0.013855573137479293 0.48063527707558917 1.3103913350918006 46 32 15 0.45486260966632647 43 878 48 2067 15 3791
1385 -0.60145009601645327 0.48533083452295406 1.2536800255845153 172 178 199 0.87774543088321832 43 2340 48 2068 15 3468
1692 -0.12808684820494867 -0.085045919596391364 1.4332069430968448 130 173 161 0.84018767302121555 43 2403 48 4339 15 621
1391 -0.26336278033810429 0.49786088643636489 1.2705461667707831 120 107 90 2.0308675064229997 22 2359 48 2084 15 3359 10 1930 27 2307 33 1919
1392 -0.37964898292620369 0.49923908044141441 1.2601512562285362 31 14 2 1.7126103032194369 22 2341 48 2085 15 1532 43 881 10 1919 33 2270 27 2863
6371 -0.23505501415002017 -0.24803515293528994 1.3958341810214692 142 183 165 1.3366750622084658 22 3327 27 1862 50 3629 36 1626 35 852 30 2174 23 2031 33 1791 8 2065 28 1666 39 448
1393 -0.19169571507472485 0.50838232831927699 1.2686669498265895 147 131 106 2.1387776711928281 22 2374 48 2095 15 3141 41 3442
1760 -0.14599158408573015 -0.63245917689513143 1.6733532936309037 134 162 202 1.5597131933999937 48 23 24 22 20 23 27 50 15 52
1394 -0.59497151168210483 0.51022645101335418 1.2468455567424896 34 20 8 1.0951496119504203 22 1520 48 2097 15 3399 43 1026
1397 -0.39625486985427527 0.48224803946088329 1.3635429978132327 120 104 81 0.8387478577208648 48 2114 32 2951
1399 -0.011931263011226706 0.50204550286207228 1.4030637444692391 66 56 47 0.095843945330370661 22 3997 48 2138
2283 -0.45750580021592108 -0.063308362333284893 1.4561687196355673 219 223 200 1.0521966454761884 15 2669 27 2688 24 2406 10 1996 20 2302 46 1407 21 1054 9 1326 12 1386 32 2310
1400 -0.57082649907930127 0.54097491456254965 1.2824703538278177 34 24 12 0.84890727699918467 22 4405 15 3007 48 2147
1402 -0.6192297929234184 0.55481732459377242 1.251546443321824 38 38 41 1.3539785647576583 22 2404 48 2153 15 1560
1405 -0.18554363620665734 0.57222214607702104 1.2566044555577105 120 106 92 1.6523443325135012 48 2157 13 1494 25 2078
1407 -0.51303240294098573 0.567755853348897 1.2597313578037705 76 65 51 1.3786041273683978 22 2428 48 2168 15 3054 27 2801
6160 -0.27753107188966381 -0.40675106427332658 1.3934451666587269 179 230 215 1.9418370017269702 48 737 50 1229
1411 -0.150317504324708 0.6153792883495689 1.2726981997028894 38 29 24 1.5357696063992712 48 2198 15 3150 13 1552
1412 -0.24910951653102797 0.59479248336974533 1.3570081042760016 94 79 60 1.3281196768749697 22 4270 48 2216 15 1635
1557 -0.20365044773369689 0.3343954401382313 1.3479056554937903 132 180 161 0.45563506629452383 48 3203 46 2272 24 2661
14346 -0.51357382144504282 0.20557280350182583 1.6635936010838699 35 58 38 2.1029088812707668 38 863 21 790
1413 -0.19485207682607458 0.63176078986116757 1.2791818428051904 105 95 88 1.5702423208423948 48 2218 15 1643 13 470
2583 -0.50110934886893599 0.39937438591657315 1.3127000018197705 175 164 134 1.1317899748904663 22 4698 46 870 10 1278 27 1405 15 1467
1414 -0.41143245239908516 -0.93313415389723531 1.5382720991598271 4 14 15 1.510539898732604 43 942 48 2228 15 2131 22 1648
1416 -0.19659671668966783 -0.10338782215487603 1.4038339611602688 107 148 136 0.96515487422646518 22 1102 48 2239 46 646 10 903 24 1582 27 1603 45 937 33 856 50 1004 40 1208 31 594 36 1055 13 1861 30 1633 23 968 2 1441 28 1697
1419 -0.36890125989704042 0.23238100411683621 1.3872685801440103 49 90 85 1.1641064443413214 22 4936 48 2247 27 2964 10 2180
1565 -0.29241762997725712 0.37295988391408935 1.3234521079791264 67 53 40 0.44366451203625146 22 4748 48 3256 46 1050 27 1391
1422 -0.27867309371276633 0.08686305621321247 1.4324768124191571 51 87 78 1.0760264566509121 22 5081 48 2267 46 1434 40 1584 31 1879 21 1744
6687 -0.17981401481673262 -0.053527743039027111 1.425094740103795 53 90 82 1.4096782749722312 40 1234 36 745 48 1076 35 547 22 1081
1633 -0.58256041995071728 0.55729008647594169 1.2452144736009481 47 31 22 1.8514278392428352 43 2052 48 3780 15 3006
1430 -0.3293259857785214 -0.95340285381925471 1.5267996425841646 147 175 171 1.4518606304964381 22 1311 48 2332 46 517 25 1304 15 1961
1641 -0.5202967861956177 0.57062498632591985 1.2719192836540041 90 81 70 1.3240484678623647 22 4025 48 3849
1435 -0.41059992478828938 -0.11728391604684534 1.4301668539158625 100 140 129 0.94602704826720085 22 3509 48 2351 40 2008
1645 -0.15256072079612021 0.61883012222520228 1.2724305969818281 104 96 92 1.6080327696409853 48 3930 15 3153 13 1215
1438 -0.62711671193008445 -1.3613042963639987 1.4358329407626254 9 16 19 0.37141830068104376 43 1095 29 3198
1585 -0.15626893014473958 0.40192937473987345 1.3342290209586272 133 119 106 0.98652457044756048 22 4542 46 1114 36 2259 13 2842 41 3023
1445 -0.4406521880385218 -1.033582988036102 1.5057967899212306 152 179 207 1.6904366122661196 48 2438 15 2091 40 2116
1453 -0.31569971571709776 -0.9691233805927244 1.5378072321062251 96 114 114 1.9628362262154535 22 1638 48 2478 24 1863 20 1558 45 1574 40 2129 50 4528 62 3771 30 1765 61 6413
1537 -0.22735458516752535 -0.2323118617529803 1.3920837484089816 134 174 160 0.21481461734085083 22 3339 48 3072 40 1464
1460 -0.23088442185044328 -0.096383360023912956 1.3825419691893548 121 152 137 0.79518956836159593 33 1854 40 1513 31 1449 22 3506 23 1516 48 2539 50 2037
1541 -0.32928010928697865 -0.19744538913008799 1.3883155309866513 94 140 130 1.274356474832129 22 3369 48 3120 46 1372 10 2422 24 2335 27 3288 36 1288 35 841 13 2565 41 2881
1461 -0.34914981062019868 -0.84780630158488646 1.5244916080429671 28 60 55 1.2484845628042331 22 2779 43 1575 48 2541
1462 -0.44299052023282398 -0.93026840587691839 1.6114492686538999 179 198 211 1.0915375356326988 22 1669 48 2544 43 1139 27 1498 10 1675 20 1394
1464 -0.52643569039726945 -0.817843960463145 1.4806095678541082 85 126 120 0.70739607101533919 43 1571 48 2550 15 293
2056 -0.39194157426859916 0.46480280288545295 1.2877001321042554 101 93 79 2.0389954751758044 22 4482 43 2318 15 1505 24 256 10 386 27 334 33 226
1468 -0.27311302585909397 -0.83881581647330949 1.6178556119929595 170 191 219 0.026532576175217537 48 2609 62 4011
1549 -0.21216370369195681 0.29150800139810912 1.3450733891454763 5 37 28 1.4580313057326522 22 4883 48 3161
1469 -0.3540343406919807 -0.78770760794286876 1.5564776973993899 28 60 57 0.27568352058802559 22 4583 48 2612 15 2017
1470 -0.31807231857447288 -0.70713234098760847 1.5185182285008847 24 55 50 1.4806312579427234 22 1241 48 2646 15 2277 46 658 50 1692 30 1502 41 2472
13747 -0.45816726798256607 0.58511879776815157 1.2427163338773539 84 95 87 1.4677806976545407 48 1317 38 974 9 914
2048 -0.11915499762524244 0.39733589258511443 1.3383005968706356 99 89 78 1.147931030390515 22 4607 24 2736 20 2155 36 2322 25 2517 15 1480 27 3111
1621 -0.50345439305310846 0.53031553236224105 1.2397672936035682 117 101 76 1.3873079829645978 48 3628 15 3788 9 885 38 1640
14410 -0.42903114906845508 0.033589222423510742 1.4941324945635566 131 174 161 1.7338992345547644 46 481 9 335 22 3200 27 751 15 634 61 4112 62 867
